82135.04 530179.67 373.34
82135.08 530179.59 373.34
82135.12 530179.48 373.33
82135.16 530179.39 373.32
82135.19 530179.31 373.32
82135.22 530179.24 373.36
82135.25 530179.17 373.36
82135.27 530179.11 373.40
82135.30 530179.04 373.42
82135.33 530178.96 373.42
82135.37 530178.87 373.43
82135.41 530178.78 373.43
82135.44 530178.70 373.42
82135.48 530178.61 373.42
82135.51 530178.54 373.45
82135.54 530178.46 373.45
82135.58 530178.36 373.43
82135.62 530178.26 373.42
82135.66 530178.17 373.42
82135.70 530178.08 373.41
82135.73 530178.00 373.42
82135.77 530177.91 373.41
82135.80 530177.83 373.42
82135.83 530177.76 373.44
82135.86 530177.68 373.45
82135.89 530177.62 373.46
82135.93 530177.53 373.46
82135.96 530177.44 373.46
82136.00 530177.36 373.47
82136.04 530177.28 373.48
82136.07 530177.21 373.49
82136.10 530177.14 373.50
82136.13 530177.05 373.51
82136.16 530176.98 373.52
82136.19 530176.91 373.53
82136.23 530176.83 373.54
82136.26 530176.76 373.54
82136.29 530176.68 373.55
82136.32 530176.61 373.57
82136.35 530176.53 373.57
82136.39 530176.44 373.57
82136.42 530176.36 373.58
82136.45 530176.29 373.58
82136.48 530176.22 373.60
82136.51 530176.14 373.60
82136.54 530176.06 373.61
82136.57 530175.99 373.62
82136.60 530175.92 373.63
82136.63 530175.85 373.64
82136.67 530175.76 373.64
82136.70 530175.69 373.65
82136.73 530175.60 373.65
82136.78 530175.50 373.63
82136.81 530175.42 373.64
82136.85 530175.34 373.64
82136.87 530175.27 373.65
82136.91 530175.17 373.64
82128.40 530195.69 374.84
82128.41 530195.66 374.82
82128.44 530195.58 374.81
82128.45 530195.57 374.76
82128.45 530195.58 374.71
82128.46 530195.56 374.66
82128.49 530195.47 374.67
82128.51 530195.43 374.65
82128.53 530195.38 374.62
82128.55 530195.36 374.58
82128.56 530195.32 374.56
82128.58 530195.29 374.52
82128.60 530195.25 374.49
82128.63 530195.15 374.50
82128.63 530195.16 374.43
82128.67 530195.08 374.43
82128.74 530194.90 374.53
82128.77 530194.82 374.53
82128.78 530194.79 374.49
82128.79 530194.80 374.42
82128.83 530194.70 374.43
82128.99 530194.27 374.76
82129.02 530194.20 374.76
82129.03 530194.17 374.72
82129.05 530194.14 374.68
82129.06 530194.11 374.63
82129.07 530194.09 374.58
82129.08 530194.08 374.52
82129.08 530194.09 374.43
82129.10 530194.06 374.39
82129.10 530194.05 374.33
82129.12 530194.02 374.27
82129.13 530194.00 374.21
82129.14 530193.97 374.17
82129.16 530193.93 374.12
82129.18 530193.89 374.09
82129.20 530193.85 374.04
82129.21 530193.81 374.00
82129.22 530193.82 373.91
82129.26 530193.70 373.94
82129.28 530193.66 373.90
82129.28 530193.67 373.80
82129.32 530193.57 373.82
82129.33 530193.55 373.74
82129.35 530193.51 373.70
82129.36 530193.49 373.63
82129.38 530193.45 373.57
82129.41 530193.40 373.53
82129.45 530193.29 373.56
82129.50 530193.15 373.62
82129.49 530193.20 373.45
82129.50 530193.20 373.35
82129.53 530193.12 373.34
82129.57 530193.02 373.36
82129.61 530192.94 373.35
82129.62 530192.90 373.29
82129.66 530192.80 373.30
82129.71 530192.70 373.33
82129.72 530192.68 373.23
82129.75 530192.60 373.22
82129.74 530192.64 373.04
82129.78 530192.55 373.05
82129.83 530192.41 373.10
82129.88 530192.29 373.14
82129.90 530192.25 373.09
82129.94 530192.17 373.07
82129.97 530192.10 373.04
82129.99 530192.05 372.97
82130.02 530191.97 372.95
82130.06 530191.87 372.96
82130.10 530191.79 372.95
82130.14 530191.69 372.97
82130.17 530191.61 372.94
82130.21 530191.52 372.93
82130.24 530191.45 372.92
82130.28 530191.36 372.91
82130.32 530191.26 372.92
82130.36 530191.17 372.93
82130.40 530191.07 372.94
82130.44 530190.98 372.94
82130.48 530190.88 372.94
82130.52 530190.79 372.94
82130.55 530190.72 372.91
82130.58 530190.64 372.89
82130.62 530190.53 372.92
82130.66 530190.45 372.89
82130.69 530190.37 372.87
82130.73 530190.29 372.86
82130.77 530190.20 372.83
82130.80 530190.11 372.84
82130.84 530190.02 372.84
82130.88 530189.94 372.80
82130.91 530189.86 372.77
82130.95 530189.78 372.74
82130.99 530189.68 372.76
82131.02 530189.60 372.74
82131.06 530189.50 372.73
82131.10 530189.40 372.75
82131.14 530189.31 372.74
82131.18 530189.23 372.73
82131.22 530189.13 372.72
82131.25 530189.04 372.72
82131.30 530188.94 372.73
82131.33 530188.85 372.75
82131.38 530188.75 372.77
82131.42 530188.64 372.80
82131.46 530188.54 372.85
82131.50 530188.44 372.88
82131.54 530188.35 372.91
82131.58 530188.24 372.94
82131.61 530188.15 372.95
82131.65 530188.06 372.97
82131.69 530187.97 372.99
82131.73 530187.87 373.00
82131.77 530187.78 372.99
82131.81 530187.68 373.05
82131.85 530187.59 373.05
82131.88 530187.50 373.06
82131.92 530187.41 373.06
82131.96 530187.32 373.04
82132.00 530187.23 373.07
82132.03 530187.13 373.08
82132.07 530187.04 373.13
82132.11 530186.96 373.12
82132.14 530186.87 373.12
82132.18 530186.77 373.12
82132.22 530186.69 373.13
82132.25 530186.60 373.15
82132.29 530186.51 373.16
82132.33 530186.42 373.08
82132.37 530186.33 373.14
82132.40 530186.25 373.14
82132.44 530186.16 373.14
82132.48 530186.06 373.10
82132.52 530185.97 373.14
82132.55 530185.89 373.15
82132.59 530185.79 373.17
82132.62 530185.71 373.22
82132.66 530185.63 373.22
82132.69 530185.54 373.24
82132.73 530185.45 373.27
82132.76 530185.37 373.31
82132.80 530185.28 373.26
82132.83 530185.20 373.34
82132.87 530185.11 373.30
82132.91 530185.02 373.29
82132.95 530184.93 373.29
82132.98 530184.83 373.26
82133.02 530184.75 373.26
82133.06 530184.66 373.26
82133.09 530184.57 373.25
82133.13 530184.48 373.26
82133.17 530184.40 373.25
82133.21 530184.30 373.23
82133.24 530184.22 373.27
82133.27 530184.14 373.28
82133.31 530184.05 373.28
82133.34 530183.96 373.31
82133.38 530183.88 373.30
82133.42 530183.79 373.30
82133.45 530183.71 373.31
82133.49 530183.62 373.33
82133.53 530183.53 373.30
82133.56 530183.44 373.28
82133.60 530183.35 373.29
82133.64 530183.26 373.30
82133.67 530183.18 373.30
82133.71 530183.09 373.28
82133.75 530182.99 373.25
82133.80 530182.89 373.22
82133.85 530182.78 373.15
82133.88 530182.68 373.15
82133.92 530182.59 373.15
82133.98 530182.46 373.06
82134.01 530182.40 373.11
82134.04 530182.31 373.10
82134.09 530182.20 373.09
82134.13 530182.10 373.06
82134.16 530182.02 373.07
82134.19 530181.95 373.10
82134.23 530181.86 373.12
82134.25 530181.80 373.16
82134.29 530181.71 373.18
82134.32 530181.64 373.21
82134.35 530181.57 373.23
82134.38 530181.48 373.24
82134.41 530181.42 373.27
82134.46 530181.29 373.21
82134.49 530181.22 373.25
82134.53 530181.12 373.22
82134.57 530181.03 373.22
82134.61 530180.93 373.20
82134.65 530180.84 373.20
82134.69 530180.74 373.19
82134.73 530180.66 373.19
82134.76 530180.57 373.18
82134.80 530180.49 373.20
82134.83 530180.40 373.20
82134.86 530180.33 373.22
82134.90 530180.24 373.22
82134.93 530180.16 373.24
82134.96 530180.09 373.26
82135.00 530180.00 373.26
82135.03 530179.91 373.26
82135.06 530179.84 373.28
82135.10 530179.75 373.28
82135.13 530179.68 373.30
82135.16 530179.60 373.32
82135.19 530179.52 373.33
82135.22 530179.45 373.35
82135.25 530179.38 373.37
82135.28 530179.30 373.37
82135.31 530179.23 373.39
82135.35 530179.14 373.40
82135.39 530179.04 373.38
82135.42 530178.98 373.41
82135.46 530178.89 373.40
82135.50 530178.79 373.40
82135.53 530178.70 373.38
82135.56 530178.64 373.41
82135.58 530178.58 373.44
82135.62 530178.49 373.45
82135.65 530178.41 373.46
82135.69 530178.33 373.46
82135.72 530178.25 373.46
82135.76 530178.16 373.46
82135.79 530178.07 373.45
82135.82 530178.00 373.47
82135.86 530177.91 373.47
82135.91 530177.80 373.44
82135.94 530177.71 373.44
82135.98 530177.63 373.45
82136.00 530177.56 373.47
82136.03 530177.49 373.47
82136.07 530177.41 373.48
82136.09 530177.35 373.51
82136.14 530177.25 373.49
82136.18 530177.17 373.49
82136.22 530177.07 373.49
82136.24 530177.01 373.51
82136.27 530176.94 373.52
82136.30 530176.86 373.53
82136.33 530176.80 373.55
82136.37 530176.71 373.55
82136.40 530176.62 373.54
82136.43 530176.57 373.57
82136.46 530176.48 373.58
82136.50 530176.40 373.57
82136.53 530176.32 373.58
82136.56 530176.23 373.58
82136.59 530176.17 373.59
82136.62 530176.10 373.61
82136.65 530176.02 373.62
82136.68 530175.95 373.62
82136.71 530175.87 373.62
82136.74 530175.81 373.64
82136.77 530175.73 373.65
82136.80 530175.66 373.66
82136.84 530175.57 373.65
82136.88 530175.48 373.65
82136.92 530175.37 373.64
82136.95 530175.30 373.64
82136.99 530175.22 373.64
82128.50 530195.65 375.07
82128.52 530195.61 375.05
82128.52 530195.62 374.98
82128.51 530195.63 374.92
82128.51 530195.64 374.86
82128.52 530195.63 374.81
82128.52 530195.63 374.75
82128.52 530195.63 374.70
82128.53 530195.61 374.66
82128.55 530195.58 374.62
82128.59 530195.48 374.64
82128.62 530195.40 374.65
82128.65 530195.33 374.64
82128.65 530195.33 374.58
82128.65 530195.34 374.51
82128.65 530195.34 374.44
82128.66 530195.34 374.37
82128.67 530195.32 374.33
82128.67 530195.31 374.27
82128.83 530194.92 374.55
82128.84 530194.89 374.50
82128.86 530194.85 374.47
82128.87 530194.83 374.43
82128.91 530194.73 374.44
82129.09 530194.26 374.81
82129.10 530194.23 374.77
82129.12 530194.19 374.73
82129.13 530194.17 374.69
82129.14 530194.17 374.62
82129.14 530194.16 374.56
82129.15 530194.13 374.50
82129.16 530194.13 374.43
82129.17 530194.11 374.38
82129.17 530194.12 374.30
82129.19 530194.07 374.26
82129.18 530194.10 374.16
82129.20 530194.07 374.10
82129.22 530194.03 374.06
82129.26 530193.91 374.11
82129.29 530193.84 374.09
82129.32 530193.79 374.07
82129.35 530193.71 374.08
82129.35 530193.72 373.97
82129.36 530193.69 373.91
82129.38 530193.66 373.85
82129.39 530193.63 373.80
82129.41 530193.60 373.74
82129.42 530193.57 373.67
82129.45 530193.52 373.63
82129.45 530193.51 373.54
82129.48 530193.46 373.51
82129.53 530193.32 373.57
82129.55 530193.28 373.51
82129.57 530193.23 373.47
82129.59 530193.20 373.40
82129.61 530193.15 373.35
82129.65 530193.07 373.34
82129.67 530193.02 373.30
82129.72 530192.90 373.33
82129.76 530192.80 373.35
82129.78 530192.75 373.31
82129.80 530192.72 373.22
82129.88 530192.52 373.26
82130.00 530192.22 373.31
82130.00 530192.24 373.15
82130.04 530192.15 373.15
82130.07 530192.06 373.16
82130.10 530191.99 373.12
82130.11 530191.98 373.01
82130.15 530191.90 372.98
82130.18 530191.84 372.93
82130.22 530191.74 372.95
82130.25 530191.65 372.94
82130.28 530191.60 372.87
82130.33 530191.47 372.95
82130.36 530191.40 372.90
82130.40 530191.30 372.90
82130.44 530191.20 372.93
82130.48 530191.12 372.91
82130.51 530191.03 372.91
82130.56 530190.93 372.94
82130.59 530190.84 372.92
82130.63 530190.75 372.92
82130.66 530190.67 372.91
82130.70 530190.57 372.90
82130.74 530190.48 372.90
82130.77 530190.41 372.88
82130.81 530190.33 372.85
82130.84 530190.24 372.83
82130.88 530190.15 372.82
82130.92 530190.06 372.83
82130.96 530189.98 372.81
82130.99 530189.89 372.78
82131.03 530189.81 372.74
82131.07 530189.72 372.75
82131.10 530189.63 372.74
82131.14 530189.54 372.73
82131.18 530189.44 372.73
82131.22 530189.36 372.72
82131.26 530189.27 372.71
82131.29 530189.17 372.69
82131.33 530189.08 372.70
82131.37 530188.98 372.72
82131.41 530188.89 372.73
82131.46 530188.78 372.78
82131.50 530188.67 372.82
82131.54 530188.57 372.87
82131.58 530188.47 372.90
82131.62 530188.38 372.92
82131.66 530188.28 372.93
82131.70 530188.18 372.98
82131.73 530188.09 372.99
82131.77 530188.00 373.00
82131.81 530187.90 373.02
82131.85 530187.81 373.00
82131.89 530187.72 373.05
82131.92 530187.63 373.06
82131.96 530187.53 373.07
82132.00 530187.44 373.06
82132.04 530187.36 373.06
82132.07 530187.27 373.07
82132.11 530187.17 373.07
82132.15 530187.08 373.09
82132.18 530187.00 373.09
82132.22 530186.91 373.10
82132.26 530186.81 373.09
82132.30 530186.72 373.13
82132.33 530186.64 373.13
82132.37 530186.55 373.15
82132.41 530186.45 373.14
82132.44 530186.37 373.12
82132.48 530186.28 373.14
82132.52 530186.19 373.11
82132.56 530186.09 373.11
82132.59 530186.01 373.13
82132.63 530185.92 373.13
82132.67 530185.83 373.17
82132.70 530185.75 373.22
82132.74 530185.66 373.22
82132.77 530185.58 373.23
82132.80 530185.49 373.27
82132.84 530185.41 373.31
82132.88 530185.32 373.31
82132.92 530185.22 373.30
82132.94 530185.15 373.33
82132.99 530185.05 373.29
82133.02 530184.96 373.28
82133.06 530184.87 373.28
82133.10 530184.78 373.27
82133.14 530184.70 373.25
82133.17 530184.61 373.26
82133.21 530184.52 373.28
82133.25 530184.43 373.27
82133.28 530184.35 373.27
82133.32 530184.25 373.27
82133.35 530184.17 373.26
82133.39 530184.08 373.27
82133.42 530184.00 373.29
82133.46 530183.91 373.30
82133.49 530183.84 373.33
82133.53 530183.75 373.31
82133.57 530183.65 373.32
82133.61 530183.56 373.29
82133.64 530183.49 373.32
82133.68 530183.39 373.28
82133.71 530183.30 373.31
82133.75 530183.21 373.28
82133.79 530183.12 373.29
82133.83 530183.03 373.27
82133.88 530182.93 373.23
82133.92 530182.82 373.17
82133.96 530182.72 373.16
82134.01 530182.61 373.11
82134.04 530182.54 373.15
82134.08 530182.45 373.13
82134.12 530182.35 373.11
82134.16 530182.25 373.10
82134.20 530182.16 373.10
82134.23 530182.08 373.11
82134.27 530181.99 373.12
82134.30 530181.92 373.16
82134.34 530181.82 373.13
82134.36 530181.76 373.20
82134.39 530181.69 373.22
82134.42 530181.61 373.24
82134.46 530181.52 373.25
82134.49 530181.44 373.25
82134.53 530181.35 373.25
82134.57 530181.25 373.24
82134.61 530181.15 373.22
82134.65 530181.06 373.22
82134.69 530180.97 373.20
82134.73 530180.88 373.19
82134.77 530180.78 373.20
82134.81 530180.69 373.18
82134.84 530180.61 373.19
82134.88 530180.51 373.18
82134.92 530180.42 373.18
82134.95 530180.34 373.20
82134.98 530180.27 373.22
82135.01 530180.19 373.24
82135.05 530180.11 373.25
82135.08 530180.04 373.26
82135.11 530179.96 373.27
82135.15 530179.86 373.27
82135.17 530179.80 373.30
82135.21 530179.72 373.31
82135.25 530179.63 373.31
82135.28 530179.54 373.30
82135.31 530179.46 373.32
82135.35 530179.38 373.32
82135.38 530179.30 373.34
82135.41 530179.23 373.35
82135.44 530179.15 373.35
82135.47 530179.08 373.38
82135.50 530179.00 373.39
82135.53 530178.93 373.41
82135.59 530178.79 373.34
82135.64 530178.67 373.30
82135.65 530178.64 373.37
82135.68 530178.57 373.40
82135.70 530178.52 373.43
82135.74 530178.44 373.44
82135.77 530178.35 373.44
82135.80 530178.28 373.45
82135.84 530178.18 373.44
82135.88 530178.09 373.44
82135.90 530178.03 373.46
82135.95 530177.93 373.45
82135.99 530177.84 373.44
82136.02 530177.74 373.43
82136.05 530177.68 373.46
82136.08 530177.60 373.47
82136.11 530177.53 373.47
82136.15 530177.44 373.47
82136.19 530177.36 373.48
82136.22 530177.29 373.49
82136.25 530177.22 373.51
82136.28 530177.14 373.51
82136.32 530177.06 373.52
82136.35 530176.98 373.52
82136.38 530176.90 373.53
82136.42 530176.82 373.53
82136.45 530176.74 373.54
82136.48 530176.67 373.56
82136.51 530176.60 373.56
82136.54 530176.52 373.57
82136.57 530176.45 373.58
82136.61 530176.36 373.57
82136.65 530176.26 373.57
82136.68 530176.18 373.57
82136.71 530176.12 373.58
82136.74 530176.04 373.60
82136.76 530175.98 373.61
82136.79 530175.90 373.62
82136.83 530175.82 373.62
82136.85 530175.75 373.63
82136.89 530175.67 373.64
82136.93 530175.58 373.63
82136.96 530175.51 373.64
82136.99 530175.42 373.64
82137.02 530175.35 373.65
82137.06 530175.26 373.64
82128.60 530195.62 375.11
82128.60 530195.64 375.05
82128.59 530195.66 374.98
82128.62 530195.61 374.96
82128.60 530195.64 374.89
82128.61 530195.63 374.84
82128.61 530195.64 374.78
82128.62 530195.63 374.73
82128.63 530195.61 374.68
82128.63 530195.59 374.63
82128.63 530195.60 374.57
82128.64 530195.59 374.52
82128.63 530195.61 374.43
82128.66 530195.54 374.43
82128.70 530195.47 374.43
82128.69 530195.49 374.35
82128.71 530195.44 374.32
82128.73 530195.40 374.29
82128.74 530195.38 374.24
82128.92 530194.92 374.57
82128.94 530194.86 374.55
82128.95 530194.85 374.50
82128.98 530194.77 374.50
82129.03 530194.65 374.54
82129.08 530194.52 374.59
82129.14 530194.38 374.65
82129.17 530194.31 374.65
82129.22 530194.19 374.70
82129.22 530194.19 374.62
82129.22 530194.19 374.55
82129.22 530194.20 374.47
82129.22 530194.22 374.38
82129.22 530194.21 374.31
82129.22 530194.22 374.22
82129.25 530194.16 374.20
82129.27 530194.10 374.18
82129.30 530194.05 374.15
82129.32 530194.00 374.12
82129.34 530193.95 374.10
82129.37 530193.89 374.07
82129.39 530193.85 374.03
82129.39 530193.85 373.95
82129.44 530193.73 373.99
82129.45 530193.69 373.93
82129.47 530193.66 373.89
82129.49 530193.63 373.83
82129.50 530193.60 373.77
82129.52 530193.57 373.71
82129.53 530193.53 373.65
82129.55 530193.49 373.59
82129.56 530193.50 373.49
82129.58 530193.43 373.47
82129.60 530193.40 373.39
82129.65 530193.27 373.45
82129.67 530193.24 373.39
82129.67 530193.23 373.29
82129.71 530193.14 373.29
82129.75 530193.04 373.31
82129.78 530192.98 373.26
82129.87 530192.74 373.47
82129.90 530192.68 373.44
82129.95 530192.55 373.49
82130.00 530192.43 373.54
82130.10 530192.22 373.22
82130.13 530192.13 373.21
82130.18 530192.02 373.25
82130.20 530191.97 373.20
82130.22 530191.95 373.09
82130.23 530191.92 373.00
82130.27 530191.84 372.97
82130.37 530191.60 372.91
82130.40 530191.52 372.90
82130.44 530191.43 372.90
82130.48 530191.34 372.88
82130.52 530191.24 372.90
82130.56 530191.14 372.92
82130.60 530191.05 372.93
82130.64 530190.96 372.92
82130.67 530190.86 372.92
82130.71 530190.78 372.91
82130.75 530190.69 372.91
82130.78 530190.62 372.88
82130.81 530190.53 372.86
82130.86 530190.43 372.87
82130.89 530190.35 372.86
82130.93 530190.26 372.84
82130.96 530190.18 372.81
82131.00 530190.09 372.80
82131.04 530190.01 372.79
82131.07 530189.92 372.75
82131.11 530189.84 372.74
82131.15 530189.75 372.74
82131.18 530189.66 372.73
82131.22 530189.56 372.74
82131.26 530189.47 372.73
82131.30 530189.38 372.72
82131.34 530189.30 372.69
82131.38 530189.20 372.71
82131.42 530189.10 372.70
82131.45 530189.01 372.72
82131.50 530188.91 372.74
82131.54 530188.79 372.83
82131.58 530188.70 372.83
82131.62 530188.59 372.89
82131.66 530188.50 372.89
82131.70 530188.40 372.95
82131.74 530188.31 372.96
82131.78 530188.20 372.98
82131.82 530188.11 373.01
82131.85 530188.02 373.02
82131.89 530187.93 373.01
82131.93 530187.83 373.02
82131.97 530187.75 373.03
82132.00 530187.66 373.03
82132.04 530187.57 373.07
82132.08 530187.47 373.05
82132.12 530187.38 373.02
82132.16 530187.29 373.06
82132.19 530187.21 373.05
82132.23 530187.11 373.08
82132.27 530187.02 373.12
82132.30 530186.93 373.12
82132.34 530186.83 373.15
82132.38 530186.75 373.11
82132.42 530186.66 373.13
82132.45 530186.57 373.14
82132.49 530186.48 373.11
82132.53 530186.39 373.12
82132.57 530186.30 373.12
82132.60 530186.22 373.08
82132.64 530186.12 373.12
82132.68 530186.03 373.12
82132.71 530185.95 373.16
82132.75 530185.86 373.19
82132.78 530185.77 373.21
82132.82 530185.69 373.23
82132.85 530185.60 373.25
82132.89 530185.51 373.30
82132.92 530185.43 373.31
82132.95 530185.35 373.33
82132.99 530185.25 373.30
82133.03 530185.16 373.30
82133.07 530185.08 373.30
82133.10 530184.99 373.30
82133.14 530184.90 373.29
82133.18 530184.81 373.27
82133.22 530184.72 373.26
82133.25 530184.64 373.27
82133.29 530184.54 373.27
82133.33 530184.46 373.27
82133.36 530184.37 373.26
82133.40 530184.28 373.28
82133.44 530184.19 373.26
82133.47 530184.11 373.29
82133.51 530184.03 373.28
82133.54 530183.93 373.27
82133.58 530183.85 373.30
82133.61 530183.77 373.32
82133.65 530183.68 373.32
82133.69 530183.59 373.31
82133.72 530183.51 373.31
82133.76 530183.42 373.31
82133.79 530183.33 373.31
82133.83 530183.24 373.31
82133.87 530183.16 373.30
82133.91 530183.05 373.26
82133.95 530182.96 373.25
82134.00 530182.85 373.20
82134.03 530182.77 373.22
82134.08 530182.66 373.17
82134.12 530182.57 373.17
82134.15 530182.49 373.18
82134.20 530182.38 373.14
82134.22 530182.31 373.17
82134.27 530182.20 373.14
82134.30 530182.13 373.16
82134.34 530182.04 373.17
82134.37 530181.95 373.16
82134.40 530181.88 373.20
82134.44 530181.79 373.21
82134.47 530181.72 373.23
82134.50 530181.64 373.25
82134.54 530181.54 373.24
82134.57 530181.48 373.27
82134.60 530181.39 373.29
82134.64 530181.30 373.27
82134.68 530181.21 373.26
82134.72 530181.12 373.26
82134.76 530181.01 373.23
82134.80 530180.92 373.22
82134.85 530180.80 373.19
82134.89 530180.72 373.19
82134.95 530180.58 373.11
82134.97 530180.53 373.17
82134.99 530180.46 373.20
82135.03 530180.38 373.21
82135.06 530180.31 373.23
82135.09 530180.22 373.24
82135.12 530180.15 373.26
82135.16 530180.06 373.26
82135.19 530179.99 373.28
82135.22 530179.90 373.27
82135.26 530179.81 373.27
82135.29 530179.73 373.29
82135.32 530179.66 373.31
82135.36 530179.57 373.32
82135.38 530179.51 373.34
82135.43 530179.40 373.31
82135.46 530179.32 373.31
82135.49 530179.25 373.35
82135.52 530179.18 373.36
82135.55 530179.10 373.37
82135.59 530179.02 373.38
82135.62 530178.95 373.39
82135.66 530178.84 373.37
82135.70 530178.74 373.36
82135.72 530178.69 373.39
82135.75 530178.63 373.43
82135.78 530178.55 373.43
82135.82 530178.45 373.42
82135.85 530178.37 373.43
82135.89 530178.29 373.43
82135.92 530178.21 373.44
82135.95 530178.13 373.45
82135.98 530178.06 373.46
82136.03 530177.95 373.44
82136.06 530177.88 373.46
82136.09 530177.81 373.47
82136.12 530177.74 373.48
82136.16 530177.63 373.46
82136.19 530177.56 373.48
82136.23 530177.47 373.47
82136.26 530177.39 373.48
82136.29 530177.32 373.49
82136.33 530177.23 373.49
82136.36 530177.15 373.50
82136.39 530177.07 373.50
82136.43 530176.99 373.50
82136.46 530176.91 373.51
82136.49 530176.83 373.51
82136.52 530176.76 373.52
82136.55 530176.68 373.53
82136.58 530176.61 373.54
82136.61 530176.53 373.55
82136.64 530176.47 373.57
82136.67 530176.39 373.57
82136.70 530176.31 373.58
82136.74 530176.24 373.59
82136.77 530176.15 373.59
82136.81 530176.06 373.59
82136.84 530175.99 373.59
82136.87 530175.91 373.60
82136.90 530175.84 373.61
82136.93 530175.77 373.62
82136.97 530175.67 373.61
82137.00 530175.59 373.62
82137.04 530175.51 373.61
82137.07 530175.42 373.62
82137.11 530175.33 373.61
82137.14 530175.26 373.62
82128.66 530195.69 375.09
82128.66 530195.69 375.03
82128.67 530195.69 374.98
82128.67 530195.68 374.93
82128.68 530195.67 374.88
82128.69 530195.66 374.83
82128.69 530195.67 374.77
82128.69 530195.65 374.73
82128.70 530195.63 374.69
82128.71 530195.61 374.64
82128.72 530195.60 374.59
82128.73 530195.58 374.55
82128.73 530195.58 374.49
82128.75 530195.55 374.44
82128.76 530195.53 374.40
82128.77 530195.51 374.35
82128.79 530195.46 374.33
82128.80 530195.43 374.29
82128.82 530195.41 374.24
82128.84 530195.35 374.22
82129.00 530194.93 374.52
82129.04 530194.83 374.55
82129.08 530194.74 374.56
82129.12 530194.63 374.58
82129.16 530194.55 374.59
82129.18 530194.49 374.58
82129.20 530194.44 374.55
82129.26 530194.29 374.63
82129.29 530194.24 374.60
82129.30 530194.21 374.56
82129.25 530194.36 374.34
82129.25 530194.36 374.27
82129.26 530194.35 374.20
82129.28 530194.29 374.18
82129.31 530194.23 374.17
82129.35 530194.12 374.19
82129.38 530194.06 374.18
82129.40 530194.01 374.14
82129.41 530193.99 374.09
82129.43 530193.95 374.04
82129.45 530193.90 374.00
82129.48 530193.85 373.98
82129.50 530193.79 373.95
82129.52 530193.75 373.91
82129.54 530193.70 373.87
82129.56 530193.66 373.82
82129.58 530193.62 373.78
82129.60 530193.59 373.72
82129.60 530193.58 373.63
82129.60 530193.59 373.51
82129.62 530193.55 373.46
82129.65 530193.48 373.44
82129.67 530193.43 373.39
82129.70 530193.36 373.37
82129.72 530193.33 373.31
82129.75 530193.25 373.29
82129.77 530193.22 373.22
82129.80 530193.14 373.21
82129.84 530193.04 373.23
82129.85 530193.04 373.10
82130.06 530192.48 373.63
82130.12 530192.34 373.72
82130.15 530192.26 373.70
82130.17 530192.20 373.67
82130.20 530192.16 373.62
82130.17 530192.25 373.23
82130.22 530192.13 373.26
82130.26 530192.05 373.24
82130.29 530191.98 373.22
82130.31 530191.91 373.19
82130.31 530191.95 372.98
82130.35 530191.85 372.99
82130.39 530191.75 373.01
82130.40 530191.73 372.89
82130.45 530191.61 372.93
82130.49 530191.52 372.94
82130.52 530191.45 372.91
82130.55 530191.37 372.87
82130.60 530191.26 372.91
82130.63 530191.18 372.90
82130.67 530191.08 372.91
82130.71 530190.99 372.92
82130.74 530190.91 372.89
82130.78 530190.82 372.89
82130.82 530190.73 372.88
82130.86 530190.64 372.89
82130.90 530190.55 372.87
82130.93 530190.47 372.85
82130.97 530190.39 372.83
82131.00 530190.29 372.82
82131.04 530190.22 372.78
82131.08 530190.12 372.80
82131.11 530190.05 372.75
82131.15 530189.96 372.73
82131.19 530189.87 372.72
82131.22 530189.78 372.72
82131.27 530189.68 372.73
82131.30 530189.59 372.73
82131.34 530189.49 372.73
82131.38 530189.41 372.71
82131.42 530189.31 372.72
82131.46 530189.23 372.69
82131.49 530189.13 372.71
82131.53 530189.03 372.73
82131.58 530188.93 372.77
82131.62 530188.83 372.79
82131.66 530188.73 372.83
82131.70 530188.62 372.88
82131.74 530188.52 372.89
82131.78 530188.43 372.93
82131.82 530188.34 372.94
82131.86 530188.23 372.96
82131.89 530188.14 372.98
82131.93 530188.05 372.99
82131.97 530187.95 373.03
82132.01 530187.86 373.03
82132.05 530187.77 373.03
82132.09 530187.68 373.03
82132.12 530187.59 373.06
82132.16 530187.50 373.04
82132.20 530187.40 373.07
82132.23 530187.32 373.05
82132.27 530187.23 373.07
82132.31 530187.13 373.06
82132.35 530187.04 373.09
82132.39 530186.95 373.11
82132.42 530186.87 373.12
82132.46 530186.77 373.11
82132.50 530186.68 373.13
82132.53 530186.60 373.11
82132.57 530186.51 373.08
82132.61 530186.41 373.13
82132.64 530186.33 373.12
82132.68 530186.24 373.10
82132.72 530186.15 373.10
82132.75 530186.06 373.14
82132.79 530185.97 373.16
82132.83 530185.89 373.18
82132.86 530185.80 373.21
82132.90 530185.71 373.24
82132.93 530185.63 373.27
82132.96 530185.54 373.30
82133.00 530185.46 373.32
82133.04 530185.37 373.33
82133.08 530185.27 373.30
82133.11 530185.19 373.32
82133.14 530185.11 373.32
82133.18 530185.02 373.31
82133.22 530184.92 373.29
82133.26 530184.84 373.29
82133.30 530184.75 373.27
82133.33 530184.66 373.27
82133.37 530184.57 373.28
82133.41 530184.48 373.26
82133.44 530184.40 373.27
82133.48 530184.31 373.29
82133.52 530184.21 373.25
82133.55 530184.13 373.28
82133.59 530184.05 373.29
82133.62 530183.96 373.29
82133.66 530183.87 373.29
82133.69 530183.79 373.31
82133.73 530183.70 373.31
82133.76 530183.62 373.31
82133.80 530183.53 373.32
82133.84 530183.44 373.30
82133.88 530183.35 373.30
82133.91 530183.27 373.32
82133.95 530183.17 373.28
82134.00 530183.07 373.25
82134.03 530182.99 373.26
82134.07 530182.90 373.26
82134.11 530182.80 373.23
82134.15 530182.70 373.21
82134.19 530182.61 373.19
82134.22 530182.52 373.21
82134.26 530182.44 373.22
82134.31 530182.32 373.14
82134.34 530182.26 373.19
82134.37 530182.17 373.21
82134.41 530182.08 373.21
82134.43 530182.02 373.25
82134.47 530181.92 373.24
82134.51 530181.84 373.25
82134.54 530181.76 373.25
82134.57 530181.68 373.28
82134.61 530181.58 373.27
82134.64 530181.51 373.28
82134.68 530181.42 373.27
82134.72 530181.32 373.27
82134.76 530181.24 373.28
82134.80 530181.15 373.27
82134.83 530181.06 373.27
82134.87 530180.96 373.25
82134.92 530180.85 373.22
82134.96 530180.76 373.20
82135.00 530180.67 373.20
82135.04 530180.58 373.20
82135.07 530180.50 373.22
82135.10 530180.42 373.22
82135.14 530180.34 373.23
82135.17 530180.24 373.23
82135.21 530180.15 373.22
82135.25 530180.06 373.22
82135.29 530179.98 373.22
82135.31 530179.91 373.26
82135.35 530179.83 373.27
82135.37 530179.77 373.30
82135.41 530179.67 373.28
82135.45 530179.58 373.28
82135.48 530179.50 373.29
82135.50 530179.45 373.33
82135.55 530179.34 373.31
82135.58 530179.26 373.33
82135.60 530179.20 373.35
82135.64 530179.12 373.35
82135.67 530179.03 373.36
82135.71 530178.94 373.36
82135.75 530178.86 373.36
82135.78 530178.76 373.35
82135.82 530178.68 373.35
82135.85 530178.61 373.37
82135.90 530178.50 373.35
82135.92 530178.44 373.38
82135.94 530178.39 373.41
82135.97 530178.32 373.43
82135.98 530178.27 373.48
82136.02 530178.18 373.47
82136.06 530178.10 373.47
82136.11 530177.97 373.42
82136.15 530177.89 373.44
82136.17 530177.82 373.45
82136.20 530177.76 373.47
82136.21 530177.72 373.52
82136.27 530177.59 373.48
82136.30 530177.51 373.48
82136.34 530177.42 373.49
82136.37 530177.36 373.49
82136.41 530177.27 373.49
82136.44 530177.19 373.50
82136.47 530177.11 373.50
82136.51 530177.03 373.51
82136.53 530176.96 373.52
82136.56 530176.90 373.54
82136.61 530176.79 373.52
82136.64 530176.71 373.53
82136.67 530176.64 373.53
82136.69 530176.57 373.55
82136.74 530176.47 373.54
82136.76 530176.41 373.56
82136.79 530176.33 373.57
82136.82 530176.26 373.58
82136.87 530176.16 373.56
82136.89 530176.09 373.58
82136.93 530176.01 373.58
82136.96 530175.94 373.59
82136.99 530175.85 373.59
82137.03 530175.77 373.59
82137.06 530175.69 373.59
82137.10 530175.60 373.59
82137.14 530175.52 373.60
82137.17 530175.45 373.60
82137.20 530175.37 373.61
82137.24 530175.28 373.60
82128.74 530195.74 375.08
82128.74 530195.73 375.02
82128.74 530195.73 374.98
82128.75 530195.72 374.93
82128.74 530195.74 374.86
82128.75 530195.72 374.81
82128.75 530195.72 374.75
82128.76 530195.71 374.71
82128.77 530195.70 374.66
82128.79 530195.66 374.62
82128.80 530195.64 374.59
82128.80 530195.63 374.53
82128.83 530195.56 374.53
82128.83 530195.58 374.45
82128.84 530195.55 374.40
82128.84 530195.55 374.34
82128.87 530195.48 374.34
82128.90 530195.41 374.34
82128.90 530195.44 374.25
82129.08 530194.97 374.58
82129.09 530194.94 374.54
82129.11 530194.91 374.50
82129.12 530194.88 374.46
82129.19 530194.69 374.56
82129.21 530194.65 374.54
82129.25 530194.55 374.55
82129.26 530194.54 374.49
82129.27 530194.51 374.45
82129.27 530194.52 374.37
82129.28 530194.51 374.30
82129.30 530194.47 374.27
82129.33 530194.38 374.27
82129.36 530194.31 374.27
82129.40 530194.24 374.27
82129.41 530194.20 374.22
82129.43 530194.15 374.19
82129.46 530194.09 374.17
82129.48 530194.05 374.13
82129.50 530194.01 374.09
82129.52 530193.96 374.06
82129.55 530193.90 374.04
82129.58 530193.82 374.03
82129.59 530193.81 373.97
82129.60 530193.78 373.91
82129.61 530193.75 373.85
82129.62 530193.74 373.78
82129.65 530193.68 373.74
82129.66 530193.67 373.65
82129.66 530193.68 373.54
82129.70 530193.56 373.58
82129.72 530193.54 373.52
82129.74 530193.49 373.47
82129.75 530193.48 373.37
82129.76 530193.47 373.29
82129.79 530193.40 373.26
82129.81 530193.34 373.23
82129.88 530193.16 373.34
82129.92 530193.08 373.33
82130.10 530192.60 373.63
82130.16 530192.45 373.71
82130.21 530192.34 373.75
82130.23 530192.28 373.73
82130.26 530192.21 373.69
82130.28 530192.19 373.62
82130.29 530192.16 373.53
82130.27 530192.23 373.30
82130.28 530192.21 373.19
82130.31 530192.15 373.16
82130.36 530192.02 373.21
82130.39 530191.96 373.16
82130.42 530191.88 373.15
82130.44 530191.85 373.04
82130.47 530191.79 373.01
82130.50 530191.72 372.98
82130.50 530191.73 372.79
82130.55 530191.60 372.87
82130.60 530191.48 372.91
82130.63 530191.40 372.87
82130.67 530191.31 372.89
82130.71 530191.22 372.89
82130.75 530191.12 372.89
82130.79 530191.03 372.92
82130.83 530190.94 372.89
82130.86 530190.86 372.88
82130.90 530190.76 372.89
82130.94 530190.68 372.87
82130.97 530190.59 372.85
82131.01 530190.50 372.85
82131.05 530190.42 372.84
82131.09 530190.33 372.83
82131.12 530190.24 372.80
82131.16 530190.16 372.79
82131.19 530190.08 372.77
82131.23 530189.98 372.76
82131.27 530189.90 372.73
82131.31 530189.81 372.71
82131.35 530189.71 372.74
82131.38 530189.63 372.73
82131.42 530189.53 372.73
82131.46 530189.45 372.69
82131.50 530189.35 372.71
82131.54 530189.26 372.69
82131.58 530189.15 372.72
82131.62 530189.06 372.73
82131.66 530188.96 372.76
82131.70 530188.85 372.82
82131.74 530188.76 372.85
82131.78 530188.66 372.83
82131.82 530188.56 372.88
82131.86 530188.46 372.91
82131.90 530188.37 372.92
82131.94 530188.26 372.97
82131.98 530188.17 372.97
82132.02 530188.08 372.98
82132.05 530187.99 373.01
82132.09 530187.89 373.00
82132.13 530187.80 373.05
82132.17 530187.71 373.04
82132.20 530187.63 373.04
82132.24 530187.52 373.06
82132.28 530187.44 373.07
82132.32 530187.35 373.06
82132.35 530187.26 373.07
82132.39 530187.16 373.09
82132.43 530187.07 373.10
82132.46 530186.99 373.12
82132.50 530186.90 373.12
82132.54 530186.80 373.10
82132.58 530186.72 373.12
82132.61 530186.63 373.10
82132.65 530186.54 373.08
82132.69 530186.45 373.11
82132.73 530186.36 373.13
82132.77 530186.27 373.09
82132.80 530186.18 373.09
82132.84 530186.09 373.13
82132.87 530186.01 373.17
82132.91 530185.92 373.19
82132.94 530185.83 373.20
82132.98 530185.74 373.24
82133.01 530185.66 373.25
82133.05 530185.57 373.32
82133.08 530185.48 373.30
82133.12 530185.40 373.28
82133.15 530185.31 373.31
82133.19 530185.22 373.29
82133.23 530185.14 373.31
82133.26 530185.05 373.31
82133.30 530184.95 373.28
82133.34 530184.87 373.30
82133.38 530184.78 373.28
82133.42 530184.69 373.26
82133.45 530184.60 373.27
82133.49 530184.51 373.26
82133.52 530184.43 373.26
82133.56 530184.34 373.27
82133.59 530184.26 373.29
82133.63 530184.17 373.28
82133.67 530184.07 373.25
82133.70 530183.99 373.29
82133.74 530183.91 373.30
82133.77 530183.83 373.31
82133.81 530183.74 373.30
82133.85 530183.65 373.31
82133.88 530183.56 373.30
82133.91 530183.49 373.33
82133.95 530183.40 373.34
82133.99 530183.30 373.31
82134.03 530183.21 373.29
82134.07 530183.11 373.26
82134.11 530183.03 373.28
82134.15 530182.92 373.24
82134.21 530182.79 373.13
82134.25 530182.70 373.14
82134.26 530182.66 373.23
82134.31 530182.55 373.18
82134.33 530182.49 373.26
82134.36 530182.42 373.28
82134.41 530182.31 373.23
82134.45 530182.21 373.22
82134.48 530182.13 373.24
82134.50 530182.07 373.30
82134.55 530181.97 373.28
82134.59 530181.86 373.24
82134.61 530181.82 373.30
82134.65 530181.72 373.29
82134.69 530181.63 373.29
82134.72 530181.55 373.29
82134.76 530181.46 373.29
82134.79 530181.38 373.32
82134.84 530181.28 373.29
82134.87 530181.20 373.29
82134.91 530181.11 373.29
82134.96 530180.98 373.21
82134.99 530180.90 373.24
82135.03 530180.82 373.24
82135.07 530180.72 373.22
82135.12 530180.62 373.20
82135.16 530180.52 373.19
82135.20 530180.41 373.17
82135.23 530180.34 373.19
82135.26 530180.27 373.22
82135.30 530180.18 373.22
82135.33 530180.09 373.21
82135.37 530180.01 373.22
82135.40 530179.93 373.24
82135.43 530179.85 373.25
82135.47 530179.77 373.25
82135.50 530179.68 373.26
82135.52 530179.63 373.30
82135.56 530179.54 373.31
82135.60 530179.44 373.29
82135.65 530179.33 373.26
82135.67 530179.28 373.30
82135.70 530179.20 373.32
82135.73 530179.13 373.33
82135.77 530179.04 373.33
82135.80 530178.96 373.34
82135.84 530178.87 373.34
82135.87 530178.80 373.35
82135.90 530178.72 373.36
82135.93 530178.64 373.37
82135.96 530178.56 373.38
82135.99 530178.49 373.39
82136.03 530178.41 373.40
82136.07 530178.32 373.39
82136.09 530178.26 373.42
82136.11 530178.20 373.45
82136.15 530178.11 373.45
82136.18 530178.03 373.46
82136.21 530177.95 373.46
82136.25 530177.87 373.47
82136.28 530177.79 373.47
82136.33 530177.69 373.45
82136.37 530177.59 373.44
82136.40 530177.51 373.45
82136.44 530177.42 373.45
82136.46 530177.35 373.46
82136.50 530177.27 373.47
82136.53 530177.20 373.48
82136.56 530177.11 373.48
82136.59 530177.04 373.49
82136.63 530176.96 373.49
82136.66 530176.87 373.50
82136.68 530176.83 373.53
82136.72 530176.74 373.53
82136.76 530176.63 373.51
82136.78 530176.58 373.53
82136.82 530176.49 373.54
82136.85 530176.43 373.56
82136.89 530176.33 373.54
82136.95 530176.18 373.49
82136.96 530176.15 373.53
82136.99 530176.08 373.54
82137.02 530176.01 373.55
82137.05 530175.93 373.56
82137.09 530175.85 373.57
82137.11 530175.78 373.58
82137.14 530175.72 373.59
82137.18 530175.63 373.59
82137.21 530175.55 373.60
82137.24 530175.47 373.60
82137.27 530175.40 373.60
82137.31 530175.30 373.60
82128.81 530195.80 375.06
82128.82 530195.76 375.04
82128.83 530195.74 374.99
82128.86 530195.68 374.99
82128.87 530195.67 374.94
82128.88 530195.63 374.91
82128.87 530195.68 374.82
82128.88 530195.66 374.77
82128.88 530195.65 374.72
82128.89 530195.64 374.68
82128.90 530195.62 374.64
82128.91 530195.61 374.58
82128.91 530195.60 374.53
82128.92 530195.59 374.47
82128.93 530195.56 374.44
82128.95 530195.51 374.41
82128.97 530195.48 374.37
82128.98 530195.47 374.32
82129.14 530195.06 374.60
82129.11 530195.14 374.47
82129.16 530195.01 374.52
82129.18 530194.97 374.48
82129.18 530194.96 374.43
82129.26 530194.77 374.53
82129.28 530194.72 374.51
82129.33 530194.60 374.54
82129.34 530194.57 374.50
82129.38 530194.48 374.51
82129.37 530194.51 374.41
82129.38 530194.51 374.35
82129.38 530194.51 374.27
82129.40 530194.47 374.23
82129.42 530194.42 374.21
82129.45 530194.33 374.21
82129.47 530194.30 374.17
82129.50 530194.22 374.16
82129.53 530194.15 374.16
82129.55 530194.10 374.12
82129.57 530194.07 374.08
82129.58 530194.05 374.01
82129.63 530193.94 374.04
82129.67 530193.84 374.07
82129.68 530193.81 374.01
82129.70 530193.76 373.97
82129.73 530193.71 373.94
82129.70 530193.79 373.76
82129.74 530193.68 373.79
82129.76 530193.65 373.73
82129.78 530193.61 373.68
82129.79 530193.58 373.61
82129.77 530193.66 373.42
82129.80 530193.60 373.39
82129.82 530193.53 373.36
82129.85 530193.49 373.31
82129.87 530193.44 373.26
82129.89 530193.40 373.20
82129.96 530193.22 373.31
82130.04 530193.01 373.47
82130.09 530192.88 373.52
82129.97 530193.24 372.94
82129.98 530193.20 372.87
82130.29 530192.37 373.76
82130.33 530192.27 373.78
82130.35 530192.24 373.73
82130.38 530192.17 373.69
82130.40 530192.13 373.51
82130.43 530192.06 373.47
82130.41 530192.14 373.22
82130.44 530192.08 373.18
82130.47 530192.01 373.14
82130.50 530191.95 373.11
82130.52 530191.89 373.06
82130.55 530191.82 373.02
82130.59 530191.73 373.02
82130.62 530191.66 373.00
82130.65 530191.60 372.93
82130.67 530191.56 372.84
82130.76 530191.34 372.90
82130.79 530191.26 372.88
82130.83 530191.18 372.86
82130.87 530191.08 372.88
82130.90 530190.99 372.87
82130.94 530190.90 372.86
82130.98 530190.80 372.88
82131.02 530190.72 372.87
82131.06 530190.63 372.85
82131.09 530190.54 372.86
82131.13 530190.47 372.81
82131.16 530190.39 372.79
82131.20 530190.29 372.79
82131.24 530190.21 372.77
82131.27 530190.12 372.74
82131.31 530190.03 372.74
82131.35 530189.93 372.72
82131.39 530189.84 372.72
82131.43 530189.75 372.73
82131.47 530189.65 372.76
82131.51 530189.55 372.75
82131.54 530189.47 372.71
82131.58 530189.37 372.73
82131.62 530189.29 372.70
82131.66 530189.19 372.72
82131.70 530189.08 372.76
82131.74 530188.99 372.78
82131.78 530188.88 372.83
82131.83 530188.78 372.86
82131.86 530188.69 372.87
82131.90 530188.59 372.89
82131.94 530188.50 372.88
82131.98 530188.40 372.91
82132.02 530188.31 372.94
82132.06 530188.21 372.95
82132.10 530188.11 373.00
82132.14 530188.02 373.00
82132.17 530187.93 373.00
82132.21 530187.83 373.05
82132.25 530187.74 373.02
82132.28 530187.66 373.04
82132.32 530187.57 373.04
82132.36 530187.47 373.06
82132.40 530187.38 373.08
82132.44 530187.29 373.08
82132.47 530187.20 373.11
82132.51 530187.10 373.13
82132.55 530187.02 373.12
82132.59 530186.93 373.11
82132.62 530186.84 373.10
82132.66 530186.75 373.15
82132.70 530186.66 373.09
82132.74 530186.57 373.07
82132.77 530186.48 373.08
82132.81 530186.39 373.09
82132.85 530186.30 373.08
82132.88 530186.22 373.12
82132.92 530186.12 373.14
82132.95 530186.04 373.16
82132.99 530185.95 373.18
82133.03 530185.86 373.18
82133.06 530185.78 373.26
82133.10 530185.69 373.25
82133.13 530185.60 373.27
82133.16 530185.52 373.31
82133.20 530185.43 373.30
82133.24 530185.34 373.28
82133.28 530185.25 373.29
82133.31 530185.17 373.31
82133.35 530185.08 373.30
82133.38 530185.00 373.30
82133.42 530184.90 373.31
82133.46 530184.81 373.26
82133.50 530184.72 373.26
82133.54 530184.64 373.26
82133.57 530184.54 373.25
82133.61 530184.46 373.27
82133.64 530184.38 373.28
82133.68 530184.28 373.28
82133.72 530184.20 373.28
82133.75 530184.11 373.28
82133.79 530184.03 373.28
82133.82 530183.94 373.31
82133.86 530183.86 373.31
82133.90 530183.76 373.29
82133.93 530183.68 373.32
82133.96 530183.60 373.32
82134.00 530183.51 373.32
82134.04 530183.43 373.32
82134.08 530183.33 373.32
82134.11 530183.25 373.31
82134.15 530183.15 373.28
82134.20 530183.05 373.25
82134.23 530182.97 373.26
82134.27 530182.87 373.25
82134.30 530182.79 373.27
82134.34 530182.71 373.28
82134.37 530182.62 373.29
82134.41 530182.54 373.29
82134.44 530182.46 373.31
82134.48 530182.37 373.30
82134.51 530182.29 373.32
82134.54 530182.21 373.34
82134.58 530182.12 373.33
82134.62 530182.03 373.32
82134.66 530181.93 373.30
82134.70 530181.85 373.31
82134.73 530181.77 373.32
82134.76 530181.69 373.32
82134.80 530181.60 373.32
82134.85 530181.50 373.29
82134.88 530181.42 373.31
82134.91 530181.35 373.33
82134.94 530181.28 373.36
82134.98 530181.17 373.34
82135.03 530181.06 373.30
82135.06 530180.98 373.30
82135.11 530180.86 373.24
82135.16 530180.76 373.22
82135.20 530180.66 373.21
82135.24 530180.57 373.21
82135.28 530180.47 373.21
82135.31 530180.39 373.20
82135.35 530180.31 373.22
82135.38 530180.22 373.21
82135.42 530180.12 373.21
82135.46 530180.04 373.21
82135.49 530179.96 373.22
82135.53 530179.87 373.21
82135.56 530179.80 373.24
82135.60 530179.71 373.24
82135.63 530179.62 373.25
82135.66 530179.54 373.25
82135.69 530179.47 373.26
82135.73 530179.38 373.27
82135.76 530179.30 373.28
82135.79 530179.23 373.29
82135.83 530179.14 373.30
82135.85 530179.08 373.33
82135.89 530179.00 373.33
82135.92 530178.92 373.35
82135.95 530178.85 373.36
82135.99 530178.76 373.35
82136.02 530178.68 373.37
82136.05 530178.60 373.38
82136.08 530178.53 373.39
82136.11 530178.45 373.41
82136.14 530178.39 373.42
82136.17 530178.30 373.43
82136.21 530178.22 373.43
82136.24 530178.14 373.44
82136.28 530178.05 373.44
82136.31 530177.98 373.45
82136.34 530177.90 373.45
82136.36 530177.84 373.48
82136.40 530177.75 373.47
82136.44 530177.66 373.48
82136.46 530177.60 373.50
82136.51 530177.50 373.48
82136.55 530177.41 373.47
82136.59 530177.30 373.46
82136.62 530177.22 373.46
82136.65 530177.15 373.47
82136.70 530177.05 373.46
82136.71 530177.00 373.49
82136.74 530176.93 373.51
82136.78 530176.85 373.51
82136.82 530176.75 373.50
82136.85 530176.68 373.51
82136.88 530176.60 373.52
82136.91 530176.52 373.52
82136.95 530176.44 373.52
82136.98 530176.35 373.53
82137.01 530176.29 373.54
82137.04 530176.20 373.55
82137.08 530176.12 373.55
82137.10 530176.06 373.56
82137.14 530175.97 373.56
82137.17 530175.90 373.57
82137.20 530175.82 373.58
82137.23 530175.74 373.58
82137.28 530175.66 373.58
82137.31 530175.58 373.58
82137.35 530175.48 373.58
82137.38 530175.42 373.59
82137.42 530175.33 373.59
82128.91 530195.78 375.09
82128.92 530195.76 375.04
82128.96 530195.66 375.07
82128.94 530195.71 374.98
82128.97 530195.65 374.97
82128.97 530195.64 374.92
82128.97 530195.65 374.86
82128.99 530195.61 374.83
82129.01 530195.58 374.79
82128.99 530195.63 374.70
82129.00 530195.62 374.65
82129.01 530195.59 374.61
82129.00 530195.61 374.53
82129.03 530195.54 374.53
82129.04 530195.52 374.48
82129.05 530195.50 374.43
82129.13 530195.32 374.53
82129.20 530195.12 374.63
82129.20 530195.13 374.55
82129.23 530195.06 374.55
82129.25 530195.02 374.52
82129.26 530194.99 374.48
82129.28 530194.96 374.44
82129.29 530194.95 374.38
82129.28 530194.97 374.30
82129.46 530194.48 374.67
82129.43 530194.57 374.52
82129.39 530194.70 374.32
82129.38 530194.75 374.21
82129.42 530194.66 374.22
82129.43 530194.62 374.17
82129.45 530194.59 374.12
82129.48 530194.50 374.14
82129.51 530194.43 374.14
82129.55 530194.33 374.15
82129.59 530194.22 374.18
82129.61 530194.18 374.14
82129.63 530194.13 374.11
82129.64 530194.11 374.05
82129.66 530194.08 374.00
82129.69 530193.99 374.01
82129.73 530193.91 374.00
82129.74 530193.89 373.95
82129.75 530193.88 373.87
82129.77 530193.81 373.84
82129.79 530193.77 373.81
82129.82 530193.71 373.78
82129.85 530193.65 373.75
82129.84 530193.67 373.63
82129.84 530193.71 373.48
82129.87 530193.61 373.51
82129.90 530193.55 373.46
82129.90 530193.55 373.35
82129.92 530193.55 373.26
82129.94 530193.51 373.20
82129.97 530193.45 373.16
82130.00 530193.33 373.20
82130.05 530193.22 373.22
82130.04 530193.27 373.04
82130.07 530193.22 372.99
82130.34 530192.48 373.77
82130.38 530192.36 373.80
82130.42 530192.26 373.82
82130.45 530192.19 373.81
82130.46 530192.17 373.72
82130.48 530192.15 373.64
82130.51 530192.07 373.62
82130.51 530192.08 373.48
82130.49 530192.15 373.24
82130.51 530192.13 373.14
82130.55 530192.03 373.15
82130.58 530191.97 373.10
82130.60 530191.92 373.05
82130.63 530191.84 373.01
82130.66 530191.78 372.98
82130.70 530191.70 372.96
82130.72 530191.65 372.88
82130.75 530191.59 372.83
82130.79 530191.48 372.84
82130.83 530191.38 372.86
82130.87 530191.28 372.88
82130.90 530191.21 372.85
82130.95 530191.11 372.87
82130.98 530191.01 372.86
82131.02 530190.93 372.85
82131.06 530190.84 372.85
82131.10 530190.75 372.84
82131.13 530190.66 372.82
82131.17 530190.57 372.82
82131.21 530190.48 372.82
82131.24 530190.41 372.78
82131.28 530190.32 372.76
82131.32 530190.23 372.75
82131.35 530190.15 372.73
82131.39 530190.06 372.73
82131.43 530189.96 372.72
82131.47 530189.87 372.72
82131.51 530189.78 372.72
82131.55 530189.67 372.77
82131.59 530189.58 372.76
82131.63 530189.48 372.76
82131.67 530189.38 372.79
82131.70 530189.32 372.70
82131.74 530189.21 372.77
82131.79 530189.09 372.82
82131.82 530189.01 372.80
82131.86 530188.91 372.84
82131.90 530188.83 372.79
82131.95 530188.71 372.89
82131.98 530188.62 372.89
82132.02 530188.53 372.88
82132.06 530188.43 372.93
82132.10 530188.34 372.93
82132.14 530188.23 372.99
82132.18 530188.14 372.99
82132.22 530188.05 373.00
82132.25 530187.96 373.01
82132.29 530187.86 373.01
82132.33 530187.77 373.03
82132.37 530187.68 373.05
82132.40 530187.60 373.04
82132.44 530187.50 373.06
82132.48 530187.41 373.07
82132.52 530187.32 373.07
82132.56 530187.23 373.10
82132.59 530187.13 373.11
82132.63 530187.04 373.12
82132.67 530186.96 373.16
82132.71 530186.87 373.08
82132.74 530186.77 373.11
82132.78 530186.69 373.09
82132.82 530186.60 373.06
82132.86 530186.51 373.05
82132.89 530186.42 373.09
82132.93 530186.33 373.10
82132.97 530186.24 373.12
82133.00 530186.15 373.16
82133.04 530186.06 373.17
82133.07 530185.98 373.21
82133.11 530185.89 373.24
82133.14 530185.80 373.25
82133.18 530185.71 373.21
82133.22 530185.63 373.27
82133.25 530185.54 373.27
82133.29 530185.45 373.28
82133.32 530185.37 373.31
82133.36 530185.28 373.30
82133.39 530185.20 373.31
82133.43 530185.11 373.28
82133.47 530185.02 373.30
82133.50 530184.93 373.29
82133.54 530184.84 373.27
82133.58 530184.75 373.27
82133.62 530184.67 373.27
82133.66 530184.57 373.26
82133.69 530184.48 373.25
82133.73 530184.40 373.28
82133.76 530184.32 373.28
82133.80 530184.23 373.29
82133.84 530184.14 373.28
82133.87 530184.06 373.28
82133.91 530183.97 373.28
82133.94 530183.88 373.31
82133.98 530183.80 373.31
82134.01 530183.72 373.31
82134.06 530183.61 373.25
82134.09 530183.54 373.32
82134.12 530183.45 373.31
82134.16 530183.36 373.30
82134.20 530183.26 373.28
82134.25 530183.16 373.24
82134.28 530183.08 373.25
82134.32 530182.99 373.24
82134.35 530182.90 373.25
82134.39 530182.81 373.25
82134.42 530182.74 373.27
82134.46 530182.65 373.28
82134.49 530182.57 373.30
82134.53 530182.49 373.30
82134.55 530182.42 373.36
82134.59 530182.33 373.33
82134.62 530182.26 373.37
82134.66 530182.16 373.33
82134.70 530182.07 373.35
82134.73 530181.99 373.35
82134.77 530181.90 373.35
82134.80 530181.81 373.36
82134.83 530181.74 373.38
82134.88 530181.64 373.34
82134.90 530181.57 373.39
82134.95 530181.47 373.37
82134.98 530181.39 373.38
82135.01 530181.31 373.39
82135.05 530181.23 373.40
82135.10 530181.11 373.35
82135.14 530181.01 373.33
82135.18 530180.92 373.31
82135.23 530180.81 373.27
82135.27 530180.70 373.25
82135.31 530180.62 373.26
82135.38 530180.45 373.13
82135.41 530180.39 373.16
82135.44 530180.31 373.19
82135.48 530180.22 373.19
82135.50 530180.16 373.23
82135.54 530180.07 373.23
82135.56 530180.01 373.25
82135.60 530179.91 373.24
82135.65 530179.81 373.24
82135.68 530179.72 373.23
82135.73 530179.64 373.23
82135.76 530179.55 373.24
