82110.437500, 530179.750000, 373.329987
82110.492188, 530179.625000, 373.320007
82110.546875, 530179.562500, 373.320007
82110.601562, 530179.500000, 373.309998
82110.671875, 530179.437500, 373.309998
82110.718750, 530179.375000, 373.309998
82110.789062, 530179.250000, 373.309998
82110.851562, 530179.187500, 373.329987
82110.921875, 530179.125000, 373.339996
82110.976562, 530179.062500, 373.350006
82111.046875, 530178.937500, 373.369995
82111.101562, 530178.875000, 373.359985
82111.148438, 530178.812500, 373.339996
82111.203125, 530178.750000, 373.309998
82111.250000, 530178.687500, 373.290009
82111.296875, 530178.625000, 373.269989
82111.390625, 530178.500000, 373.350006
82111.468750, 530178.437500, 373.380005
82111.531250, 530178.375000, 373.399994
82111.578125, 530178.250000, 373.390015
82111.648438, 530178.187500, 373.399994
82111.703125, 530178.125000, 373.380005
82111.750000, 530178.062500, 373.369995
82111.820312, 530178.000000, 373.380005
82111.882812, 530177.875000, 373.399994
82111.937500, 530177.812500, 373.390015
82112.000000, 530177.750000, 373.390015
82112.062500, 530177.687500, 373.399994
82112.132812, 530177.625000, 373.429993
82112.179688, 530177.500000, 373.420013
82112.242188, 530177.437500, 373.420013
82112.296875, 530177.375000, 373.420013
82112.351562, 530177.312500, 373.390015
82112.398438, 530177.250000, 373.369995
82112.468750, 530177.187500, 373.390015
82112.523438, 530177.125000, 373.380005
82112.593750, 530177.000000, 373.390015
82112.648438, 530176.937500, 373.420013
82112.718750, 530176.875000, 373.440002
82112.781250, 530176.750000, 373.480011
82112.828125, 530176.750000, 373.450012
82112.898438, 530176.625000, 373.480011
82112.960938, 530176.562500, 373.480011
82113.023438, 530176.500000, 373.480011
82113.078125, 530176.437500, 373.470001
82113.140625, 530176.312500, 373.540009
82113.210938, 530176.250000, 373.540009
82113.273438, 530176.187500, 373.589996
82113.343750, 530176.062500, 373.619995
82113.390625, 530176.000000, 373.630005
82113.453125, 530175.937500, 373.630005
82113.500000, 530175.875000, 373.600006
82113.562500, 530175.812500, 373.589996
82113.617188, 530175.750000, 373.600006
82113.671875, 530175.687500, 373.559998
82113.718750, 530175.625000, 373.559998
82113.789062, 530175.500000, 373.570007
82113.828125, 530175.500000, 373.510010
82113.898438, 530175.375000, 373.559998
82113.953125, 530175.312500, 373.529999
82114.007812, 530175.250000, 373.519989
82114.078125, 530175.187500, 373.559998
82114.132812, 530175.062500, 373.570007
82114.187500, 530175.000000, 373.579987
82114.250000, 530174.937500, 373.579987
82114.312500, 530174.875000, 373.589996
82114.359375, 530174.812500, 373.609985
82114.421875, 530174.750000, 373.630005
82114.476562, 530174.625000, 373.640015
82114.539062, 530174.562500, 373.630005
82114.593750, 530174.500000, 373.630005
82114.648438, 530174.437500, 373.609985
82114.710938, 530174.375000, 373.660004
82114.773438, 530174.312500, 373.670013
82114.820312, 530174.250000, 373.640015
82114.882812, 530174.125000, 373.670013
82114.937500, 530174.062500, 373.660004
82114.992188, 530174.000000, 373.660004
82115.046875, 530173.937500, 373.690002
82115.109375, 530173.875000, 373.739990
82115.156250, 530173.812500, 373.690002
82115.218750, 530173.750000, 373.709991
82115.281250, 530173.625000, 373.670013
82115.328125, 530173.562500, 373.690002
82115.390625, 530173.500000, 373.679993
82115.453125, 530173.437500, 373.670013
82115.500000, 530173.375000, 373.690002
82115.562500, 530173.312500, 373.670013
82115.609375, 530173.250000, 373.720001
82115.671875, 530173.187500, 373.700012
82115.726562, 530173.062500, 373.679993
82115.781250, 530173.000000, 373.679993
82115.843750, 530172.937500, 373.670013
82115.898438, 530172.875000, 373.679993
82115.953125, 530172.812500, 373.679993
82116.007812, 530172.750000, 373.690002
82116.070312, 530172.687500, 373.709991
82116.132812, 530172.562500, 373.690002
82116.179688, 530172.500000, 373.700012
82116.226562, 530172.437500, 373.709991
82116.289062, 530172.375000, 373.700012
82116.351562, 530172.312500, 373.709991
82116.406250, 530172.250000, 373.679993
82116.468750, 530172.187500, 373.690002
82116.523438, 530172.125000, 373.709991
82116.570312, 530172.000000, 373.720001
82116.640625, 530171.937500, 373.679993
82116.679688, 530171.875000, 373.720001
82116.742188, 530171.812500, 373.720001
82116.796875, 530171.750000, 373.739990
82116.851562, 530171.687500, 373.730011
82116.898438, 530171.625000, 373.750000
82116.968750, 530171.562500, 373.709991
82117.007812, 530171.500000, 373.769989
82117.070312, 530171.437500, 373.769989
82117.117188, 530171.375000, 373.769989
82117.203125, 530171.250000, 373.700012
82117.250000, 530171.187500, 373.720001
82117.296875, 530171.125000, 373.760010
82117.343750, 530171.062500, 373.799988
82117.398438, 530171.000000, 373.799988
82117.453125, 530170.937500, 373.799988
82117.523438, 530170.875000, 373.750000
82117.578125, 530170.750000, 373.760010
82117.609375, 530170.750000, 373.829987
82117.679688, 530170.625000, 373.799988
82117.742188, 530170.562500, 373.769989
82117.796875, 530170.500000, 373.760010
82117.851562, 530170.437500, 373.760010
82117.898438, 530170.375000, 373.779999
82117.937500, 530170.312500, 373.820007
82118.023438, 530170.250000, 373.760010
82118.078125, 530170.125000, 373.750000
82118.148438, 530170.062500, 373.730011
82118.187500, 530170.000000, 373.769989
82118.250000, 530169.937500, 373.739990
82118.296875, 530169.875000, 373.769989
82118.343750, 530169.812500, 373.809998
82118.398438, 530169.750000, 373.799988
82118.460938, 530169.687500, 373.799988
82118.523438, 530169.625000, 373.779999
82118.578125, 530169.500000, 373.779999
82118.632812, 530169.437500, 373.769989
82118.679688, 530169.375000, 373.790009
82118.726562, 530169.312500, 373.820007
82118.781250, 530169.250000, 373.820007
82118.843750, 530169.187500, 373.820007
82118.882812, 530169.125000, 373.850006
82118.929688, 530169.062500, 373.850006
82118.976562, 530169.000000, 373.859985
82119.031250, 530168.937500, 373.880005
82119.078125, 530168.875000, 373.880005
82119.132812, 530168.812500, 373.899994
82119.179688, 530168.750000, 373.899994
82119.218750, 530168.687500, 373.929993
82119.281250, 530168.625000, 373.929993
82119.320312, 530168.562500, 373.950012
82119.367188, 530168.500000, 373.959991
82119.429688, 530168.437500, 373.959991
82119.492188, 530168.375000, 373.959991
82119.539062, 530168.312500, 373.959991
82119.593750, 530168.250000, 373.959991
82119.640625, 530168.187500, 373.970001
82119.679688, 530168.125000, 373.989990
82119.726562, 530168.062500, 374.000000
82119.789062, 530168.000000, 373.989990
82119.843750, 530167.937500, 374.010010
82119.882812, 530167.875000, 374.029999
82119.929688, 530167.812500, 374.029999
82119.976562, 530167.750000, 374.049988
82120.039062, 530167.687500, 374.029999
82120.093750, 530167.625000, 374.040009
82120.132812, 530167.562500, 374.059998
82120.179688, 530167.500000, 374.059998
82120.226562, 530167.437500, 374.070007
82120.273438, 530167.375000, 374.089996
82120.328125, 530167.312500, 374.079987
82120.398438, 530167.250000, 374.070007
82120.453125, 530167.187500, 374.070007
82120.500000, 530167.125000, 374.059998
82120.539062, 530167.062500, 374.089996
82120.593750, 530167.000000, 374.089996
82120.640625, 530166.937500, 374.089996
82120.703125, 530166.875000, 374.089996
82120.750000, 530166.812500, 374.089996
82120.796875, 530166.750000, 374.100006
82120.859375, 530166.687500, 374.089996
82120.906250, 530166.625000, 374.089996
82120.968750, 530166.500000, 374.089996
82121.031250, 530166.437500, 374.079987
82121.078125, 530166.375000, 374.079987
82121.148438, 530166.312500, 374.070007
82121.203125, 530166.250000, 374.070007
82121.250000, 530166.187500, 374.079987
82121.312500, 530166.125000, 374.070007
82121.367188, 530166.000000, 374.059998
82121.429688, 530165.937500, 374.059998
82121.492188, 530165.875000, 374.040009
82121.546875, 530165.812500, 374.029999
82121.609375, 530165.750000, 374.029999
82121.671875, 530165.687500, 374.029999
82121.718750, 530165.625000, 374.029999
82121.781250, 530165.500000, 374.029999
82121.828125, 530165.500000, 374.029999
82121.890625, 530165.375000, 374.019989
82121.953125, 530165.312500, 374.010010
82107.820312, 530183.000000, 373.779999
82107.843750, 530183.000000, 373.730011
82107.867188, 530182.937500, 373.709991
82107.906250, 530182.937500, 373.679993
82107.953125, 530182.875000, 373.660004
82107.968750, 530182.812500, 373.609985
82108.007812, 530182.812500, 373.600006
82108.039062, 530182.750000, 373.559998
82108.093750, 530182.687500, 373.549988
82108.109375, 530182.687500, 373.500000
82108.132812, 530182.625000, 373.459991
82108.179688, 530182.562500, 373.440002
82108.242188, 530182.500000, 373.450012
82108.273438, 530182.500000, 373.410004
82108.312500, 530182.437500, 373.390015
82108.382812, 530182.375000, 373.399994
82108.429688, 530182.312500, 373.380005
82108.468750, 530182.250000, 373.350006
82108.476562, 530182.250000, 373.290009
82108.507812, 530182.187500, 373.250000
82108.562500, 530182.125000, 373.230011
82108.609375, 530182.062500, 373.220001
82108.671875, 530182.000000, 373.230011
82108.750000, 530181.875000, 373.260010
82108.828125, 530181.812500, 373.279999
82108.898438, 530181.687500, 373.290009
82108.968750, 530181.625000, 373.309998
82109.039062, 530181.500000, 373.320007
82109.101562, 530181.437500, 373.329987
82109.171875, 530181.375000, 373.339996
82109.242188, 530181.250000, 373.359985
82109.312500, 530181.187500, 373.369995
82109.367188, 530181.125000, 373.380005
82109.437500, 530181.000000, 373.390015
82109.523438, 530180.937500, 373.410004
82109.578125, 530180.875000, 373.420013
82109.632812, 530180.812500, 373.420013
82109.757812, 530180.625000, 373.429993
82109.820312, 530180.562500, 373.429993
82109.882812, 530180.500000, 373.429993
82109.937500, 530180.437500, 373.420013
82109.992188, 530180.375000, 373.420013
82110.039062, 530180.312500, 373.410004
82110.093750, 530180.250000, 373.399994
82110.148438, 530180.125000, 373.390015
82110.203125, 530180.062500, 373.380005
82110.257812, 530180.000000, 373.380005
82110.312500, 530179.937500, 373.369995
82110.359375, 530179.875000, 373.339996
82110.421875, 530179.812500, 373.329987
82110.468750, 530179.750000, 373.320007
82110.531250, 530179.687500, 373.320007
82110.593750, 530179.625000, 373.309998
82110.640625, 530179.562500, 373.299988
82110.687500, 530179.500000, 373.290009
82110.757812, 530179.437500, 373.290009
82110.820312, 530179.312500, 373.299988
82110.890625, 530179.250000, 373.320007
82110.960938, 530179.187500, 373.339996
82111.023438, 530179.062500, 373.359985
82111.078125, 530179.000000, 373.359985
82111.140625, 530178.937500, 373.350006
82111.203125, 530178.875000, 373.350006
82111.257812, 530178.812500, 373.350006
82111.320312, 530178.687500, 373.359985
82111.367188, 530178.625000, 373.339996
82111.421875, 530178.562500, 373.309998
82111.500000, 530178.500000, 373.369995
82111.570312, 530178.375000, 373.399994
82111.632812, 530178.312500, 373.399994
82111.687500, 530178.250000, 373.390015
82111.750000, 530178.187500, 373.380005
82111.789062, 530178.125000, 373.350006
82111.851562, 530178.062500, 373.369995
82111.921875, 530178.000000, 373.369995
82111.976562, 530177.875000, 373.380005
82112.023438, 530177.812500, 373.339996
82112.101562, 530177.750000, 373.380005
82112.171875, 530177.687500, 373.420013
82112.242188, 530177.562500, 373.459991
82112.289062, 530177.500000, 373.420013
82112.343750, 530177.437500, 373.399994
82112.406250, 530177.375000, 373.410004
82112.460938, 530177.312500, 373.390015
82112.523438, 530177.250000, 373.399994
82112.570312, 530177.187500, 373.380005
82112.632812, 530177.062500, 373.369995
82112.687500, 530177.000000, 373.390015
82112.757812, 530176.937500, 373.429993
82112.820312, 530176.875000, 373.429993
82112.890625, 530176.750000, 373.480011
82112.937500, 530176.687500, 373.459991
82113.007812, 530176.625000, 373.470001
82113.070312, 530176.500000, 373.489990
82113.132812, 530176.437500, 373.500000
82113.187500, 530176.375000, 373.540009
82113.257812, 530176.312500, 373.549988
82113.328125, 530176.187500, 373.619995
82113.390625, 530176.125000, 373.609985
82113.437500, 530176.062500, 373.630005
82113.500000, 530176.000000, 373.630005
82113.546875, 530175.937500, 373.609985
82113.609375, 530175.875000, 373.600006
82113.671875, 530175.750000, 373.619995
82113.726562, 530175.687500, 373.619995
82113.789062, 530175.625000, 373.600006
82113.843750, 530175.562500, 373.559998
82113.898438, 530175.500000, 373.559998
82113.953125, 530175.437500, 373.559998
82114.007812, 530175.375000, 373.549988
82114.070312, 530175.312500, 373.559998
82114.132812, 530175.250000, 373.589996
82114.179688, 530175.125000, 373.559998
82114.242188, 530175.062500, 373.579987
82114.296875, 530175.000000, 373.589996
82114.359375, 530174.937500, 373.600006
82114.421875, 530174.875000, 373.630005
82114.476562, 530174.750000, 373.619995
82114.531250, 530174.687500, 373.619995
82114.593750, 530174.625000, 373.609985
82114.648438, 530174.562500, 373.630005
82114.703125, 530174.500000, 373.619995
82114.773438, 530174.437500, 373.630005
82114.820312, 530174.375000, 373.649994
82114.882812, 530174.250000, 373.660004
82114.929688, 530174.187500, 373.679993
82114.992188, 530174.125000, 373.660004
82115.046875, 530174.062500, 373.679993
82115.101562, 530174.000000, 373.670013
82115.156250, 530173.937500, 373.660004
82115.218750, 530173.875000, 373.690002
82115.281250, 530173.750000, 373.690002
82115.343750, 530173.687500, 373.679993
82115.390625, 530173.625000, 373.649994
82115.453125, 530173.562500, 373.679993
82115.507812, 530173.500000, 373.670013
82115.562500, 530173.437500, 373.679993
82115.617188, 530173.375000, 373.649994
82115.679688, 530173.312500, 373.679993
82115.726562, 530173.250000, 373.670013
82115.789062, 530173.125000, 373.670013
82115.851562, 530173.062500, 373.679993
82115.898438, 530173.000000, 373.690002
82115.960938, 530172.937500, 373.679993
82116.007812, 530172.875000, 373.690002
82116.078125, 530172.812500, 373.670013
82116.132812, 530172.750000, 373.700012
82116.187500, 530172.625000, 373.690002
82116.250000, 530172.562500, 373.679993
82116.296875, 530172.500000, 373.679993
82116.359375, 530172.437500, 373.690002
82116.421875, 530172.375000, 373.700012
82116.468750, 530172.312500, 373.700012
82116.523438, 530172.250000, 373.720001
82116.578125, 530172.187500, 373.720001
82116.640625, 530172.062500, 373.700012
82116.703125, 530172.000000, 373.690002
82116.757812, 530171.937500, 373.679993
82116.812500, 530171.875000, 373.709991
82116.867188, 530171.812500, 373.709991
82116.906250, 530171.750000, 373.739990
82116.968750, 530171.687500, 373.750000
82117.031250, 530171.625000, 373.730011
82117.070312, 530171.562500, 373.779999
82117.132812, 530171.500000, 373.779999
82117.187500, 530171.437500, 373.760010
82117.242188, 530171.312500, 373.779999
82117.296875, 530171.250000, 373.769989
82117.351562, 530171.187500, 373.799988
82117.406250, 530171.125000, 373.799988
82117.468750, 530171.062500, 373.769989
82117.531250, 530171.000000, 373.779999
82117.570312, 530170.937500, 373.809998
82117.632812, 530170.875000, 373.790009
82117.687500, 530170.812500, 373.790009
82117.773438, 530170.687500, 373.739990
82117.812500, 530170.625000, 373.760010
82117.867188, 530170.562500, 373.769989
82117.921875, 530170.500000, 373.760010
82117.976562, 530170.437500, 373.769989
82118.007812, 530170.375000, 373.820007
82118.070312, 530170.312500, 373.820007
82118.132812, 530170.250000, 373.799988
82118.203125, 530170.187500, 373.769989
82118.273438, 530170.062500, 373.750000
82118.320312, 530170.000000, 373.760010
82118.367188, 530169.937500, 373.769989
82118.421875, 530169.875000, 373.799988
82118.468750, 530169.812500, 373.799988
82118.523438, 530169.750000, 373.809998
82118.593750, 530169.687500, 373.790009
82118.648438, 530169.625000, 373.779999
82118.703125, 530169.562500, 373.779999
82118.742188, 530169.500000, 373.809998
82118.796875, 530169.437500, 373.820007
82118.859375, 530169.312500, 373.809998
82118.921875, 530169.250000, 373.799988
82118.992188, 530169.187500, 373.779999
82119.031250, 530169.125000, 373.809998
82119.101562, 530169.062500, 373.790009
82119.132812, 530169.000000, 373.839996
82119.179688, 530168.937500, 373.850006
82119.218750, 530168.875000, 373.869995
82119.281250, 530168.812500, 373.869995
82119.328125, 530168.750000, 373.880005
82119.382812, 530168.687500, 373.880005
82119.429688, 530168.625000, 373.910004
82119.476562, 530168.562500, 373.910004
82119.531250, 530168.500000, 373.920013
82119.578125, 530168.437500, 373.940002
82119.632812, 530168.375000, 373.940002
82119.656250, 530168.312500, 373.970001
82119.718750, 530168.250000, 373.970001
82119.781250, 530168.187500, 373.970001
82119.828125, 530168.125000, 373.959991
82119.882812, 530168.062500, 373.970001
82119.929688, 530168.000000, 373.989990
82119.976562, 530167.937500, 373.989990
82120.039062, 530167.875000, 373.980011
82120.070312, 530167.812500, 374.019989
82120.117188, 530167.750000, 374.029999
82120.179688, 530167.687500, 374.029999
82120.226562, 530167.625000, 374.029999
82120.281250, 530167.562500, 374.040009
82120.312500, 530167.500000, 374.070007
82120.359375, 530167.500000, 374.079987
82120.429688, 530167.375000, 374.059998
82120.476562, 530167.312500, 374.070007
82120.539062, 530167.250000, 374.049988
82120.578125, 530167.187500, 374.059998
82120.632812, 530167.125000, 374.079987
82120.679688, 530167.062500, 374.079987
82120.742188, 530167.000000, 374.070007
82120.789062, 530166.937500, 374.079987
82120.851562, 530166.875000, 374.070007
82120.898438, 530166.812500, 374.079987
82120.960938, 530166.750000, 374.070007
82121.187500, 530166.437500, 374.049988
82121.242188, 530166.375000, 374.059998
82121.296875, 530166.312500, 374.049988
82121.453125, 530166.125000, 374.010010
82121.476562, 530166.062500, 374.019989
82121.531250, 530166.000000, 374.029999
82121.578125, 530165.937500, 374.029999
82121.640625, 530165.875000, 374.029999
82121.703125, 530165.812500, 374.029999
82121.750000, 530165.750000, 374.029999
82121.812500, 530165.687500, 374.029999
82121.859375, 530165.625000, 374.029999
82121.921875, 530165.562500, 374.029999
82122.031250, 530165.375000, 374.019989
82122.101562, 530165.312500, 374.010010
82107.828125, 530183.062500, 373.750000
82107.851562, 530183.062500, 373.709991
82107.890625, 530183.000000, 373.690002
82107.929688, 530182.937500, 373.670013
82107.953125, 530182.937500, 373.630005
82107.976562, 530182.937500, 373.589996
82108.000000, 530182.875000, 373.540009
82108.078125, 530182.750000, 373.579987
82108.132812, 530182.750000, 373.570007
82108.148438, 530182.687500, 373.519989
82108.156250, 530182.687500, 373.459991
82108.187500, 530182.687500, 373.420013
82108.273438, 530182.562500, 373.450012
82108.273438, 530182.562500, 373.369995
82108.351562, 530182.437500, 373.399994
82108.398438, 530182.375000, 373.380005
82108.453125, 530182.312500, 373.369995
82108.492188, 530182.312500, 373.339996
82108.507812, 530182.250000, 373.290009
82108.546875, 530182.250000, 373.269989
82108.578125, 530182.187500, 373.220001
82108.640625, 530182.125000, 373.220001
82108.687500, 530182.062500, 373.209991
82108.726562, 530182.000000, 373.179993
82108.812500, 530181.875000, 373.209991
82108.867188, 530181.812500, 373.200012
82109.000000, 530181.687500, 373.299988
82109.070312, 530181.562500, 373.320007
82109.140625, 530181.500000, 373.329987
82109.210938, 530181.437500, 373.350006
82109.281250, 530181.312500, 373.359985
82109.343750, 530181.250000, 373.369995
82109.406250, 530181.187500, 373.380005
82109.476562, 530181.062500, 373.390015
82109.539062, 530181.000000, 373.399994
82109.601562, 530180.937500, 373.399994
82109.671875, 530180.812500, 373.410004
82109.726562, 530180.750000, 373.420013
82109.789062, 530180.687500, 373.420013
82109.851562, 530180.625000, 373.420013
82109.898438, 530180.562500, 373.420013
82109.960938, 530180.500000, 373.399994
82110.023438, 530180.375000, 373.410004
82110.078125, 530180.312500, 373.399994
82110.132812, 530180.250000, 373.399994
82110.187500, 530180.187500, 373.390015
82110.250000, 530180.125000, 373.390015
82110.296875, 530180.062500, 373.369995
82110.351562, 530180.000000, 373.369995
82110.398438, 530179.937500, 373.359985
82110.460938, 530179.875000, 373.350006
82110.523438, 530179.812500, 373.350006
82110.578125, 530179.750000, 373.339996
82110.632812, 530179.687500, 373.320007
82110.687500, 530179.562500, 373.320007
82110.742188, 530179.500000, 373.309998
82110.796875, 530179.437500, 373.309998
82110.867188, 530179.375000, 373.320007
82110.929688, 530179.312500, 373.329987
82110.992188, 530179.187500, 373.339996
82111.046875, 530179.125000, 373.350006
82111.132812, 530179.062500, 373.369995
82111.203125, 530178.937500, 373.410004
82111.257812, 530178.875000, 373.390015
82111.296875, 530178.812500, 373.350006
82111.351562, 530178.750000, 373.320007
82111.406250, 530178.687500, 373.339996
82111.468750, 530178.625000, 373.320007
82111.531250, 530178.562500, 373.350006
82111.601562, 530178.437500, 373.369995
82111.656250, 530178.375000, 373.359985
82111.726562, 530178.312500, 373.390015
82111.781250, 530178.250000, 373.380005
82111.843750, 530178.187500, 373.369995
82111.906250, 530178.062500, 373.380005
82111.960938, 530178.000000, 373.359985
82112.023438, 530177.937500, 373.369995
82112.093750, 530177.875000, 373.390015
82112.140625, 530177.812500, 373.390015
82112.210938, 530177.687500, 373.410004
82112.281250, 530177.625000, 373.440002
82112.343750, 530177.562500, 373.450012
82112.398438, 530177.500000, 373.420013
82112.453125, 530177.437500, 373.420013
82112.500000, 530177.375000, 373.399994
82112.562500, 530177.250000, 373.390015
82112.617188, 530177.187500, 373.390015
82112.687500, 530177.125000, 373.410004
82112.750000, 530177.062500, 373.429993
82112.812500, 530177.000000, 373.440002
82112.867188, 530176.875000, 373.459991
82112.937500, 530176.812500, 373.459991
82112.992188, 530176.750000, 373.450012
82113.046875, 530176.687500, 373.459991
82113.117188, 530176.562500, 373.529999
82113.179688, 530176.500000, 373.519989
82113.242188, 530176.437500, 373.540009
82113.312500, 530176.375000, 373.559998
82113.367188, 530176.250000, 373.600006
82113.429688, 530176.187500, 373.600006
82113.492188, 530176.125000, 373.609985
82113.539062, 530176.062500, 373.600006
82113.609375, 530176.000000, 373.619995
82113.656250, 530175.937500, 373.600006
82113.718750, 530175.812500, 373.609985
82113.781250, 530175.750000, 373.619995
82113.828125, 530175.687500, 373.609985
82113.890625, 530175.625000, 373.589996
82113.953125, 530175.562500, 373.579987
82114.007812, 530175.500000, 373.600006
82114.070312, 530175.437500, 373.589996
82114.117188, 530175.375000, 373.549988
82114.179688, 530175.250000, 373.579987
82114.242188, 530175.187500, 373.579987
82114.296875, 530175.125000, 373.570007
82114.359375, 530175.062500, 373.619995
82114.421875, 530175.000000, 373.579987
82114.468750, 530174.937500, 373.600006
82114.531250, 530174.812500, 373.609985
82114.593750, 530174.750000, 373.649994
82114.648438, 530174.687500, 373.619995
82114.703125, 530174.625000, 373.619995
82114.757812, 530174.562500, 373.640015
82114.820312, 530174.500000, 373.619995
82114.882812, 530174.437500, 373.660004
82114.937500, 530174.312500, 373.649994
82114.992188, 530174.250000, 373.660004
82115.046875, 530174.187500, 373.660004
82115.109375, 530174.125000, 373.679993
82115.156250, 530174.062500, 373.670013
82115.218750, 530174.000000, 373.679993
82115.281250, 530173.937500, 373.649994
82115.328125, 530173.875000, 373.679993
82115.390625, 530173.750000, 373.660004
82115.453125, 530173.687500, 373.670013
82115.507812, 530173.625000, 373.720001
82115.570312, 530173.562500, 373.679993
82115.617188, 530173.500000, 373.670013
82115.679688, 530173.437500, 373.679993
82115.742188, 530173.375000, 373.630005
82115.789062, 530173.250000, 373.649994
82115.851562, 530173.187500, 373.679993
82115.906250, 530173.125000, 373.679993
82115.960938, 530173.062500, 373.679993
82116.031250, 530173.000000, 373.660004
82116.078125, 530172.937500, 373.670013
82116.148438, 530172.875000, 373.579987
82116.203125, 530172.812500, 373.630005
82116.250000, 530172.750000, 373.670013
82116.312500, 530172.625000, 373.670013
82116.359375, 530172.562500, 373.690002
82116.421875, 530172.500000, 373.690002
82116.468750, 530172.437500, 373.690002
82116.539062, 530172.375000, 373.690002
82116.593750, 530172.312500, 373.690002
82116.648438, 530172.250000, 373.670013
82116.710938, 530172.187500, 373.690002
82116.757812, 530172.062500, 373.700012
82116.812500, 530172.000000, 373.709991
82116.867188, 530171.937500, 373.720001
82116.929688, 530171.875000, 373.709991
82116.976562, 530171.812500, 373.709991
82117.093750, 530171.687500, 373.760010
82117.140625, 530171.625000, 373.779999
82117.203125, 530171.562500, 373.779999
82117.257812, 530171.500000, 373.750000
82117.312500, 530171.437500, 373.769989
82117.367188, 530171.312500, 373.769989
82117.421875, 530171.250000, 373.790009
82117.492188, 530171.187500, 373.750000
82117.539062, 530171.125000, 373.769989
82117.593750, 530171.062500, 373.769989
82117.656250, 530171.000000, 373.750000
82117.710938, 530170.937500, 373.779999
82117.757812, 530170.875000, 373.779999
82117.812500, 530170.812500, 373.779999
82117.882812, 530170.687500, 373.750000
82117.921875, 530170.687500, 373.799988
82117.968750, 530170.562500, 373.820007
82118.031250, 530170.500000, 373.809998
82118.078125, 530170.437500, 373.820007
82118.148438, 530170.375000, 373.799988
82118.210938, 530170.312500, 373.799988
82118.281250, 530170.250000, 373.769989
82118.328125, 530170.125000, 373.769989
82118.382812, 530170.125000, 373.790009
82118.429688, 530170.000000, 373.809998
82118.476562, 530170.000000, 373.809998
82118.531250, 530169.937500, 373.839996
82118.578125, 530169.812500, 373.839996
82118.671875, 530169.750000, 373.779999
82118.718750, 530169.687500, 373.779999
82118.773438, 530169.625000, 373.799988
82118.820312, 530169.562500, 373.799988
82118.882812, 530169.500000, 373.799988
82118.937500, 530169.437500, 373.799988
82119.007812, 530169.312500, 373.769989
82119.062500, 530169.250000, 373.769989
82119.117188, 530169.187500, 373.769989
82119.179688, 530169.125000, 373.769989
82119.218750, 530169.062500, 373.799988
82119.257812, 530169.000000, 373.829987
82119.320312, 530168.937500, 373.820007
82119.359375, 530168.875000, 373.839996
82119.398438, 530168.812500, 373.869995
82119.460938, 530168.750000, 373.880005
82119.500000, 530168.687500, 373.899994
82119.562500, 530168.625000, 373.890015
82119.609375, 530168.562500, 373.899994
82119.671875, 530168.500000, 373.899994
82119.718750, 530168.437500, 373.899994
82119.773438, 530168.375000, 373.910004
82119.820312, 530168.312500, 373.920013
82119.867188, 530168.250000, 373.929993
82119.921875, 530168.187500, 373.940002
82119.968750, 530168.125000, 373.950012
82120.031250, 530168.062500, 373.950012
82120.078125, 530168.000000, 373.950012
82120.132812, 530167.937500, 373.959991
82120.156250, 530167.875000, 374.000000
82120.203125, 530167.812500, 374.019989
82120.257812, 530167.750000, 374.010010
82120.312500, 530167.687500, 374.019989
82120.351562, 530167.625000, 374.029999
82120.398438, 530167.562500, 374.059998
82120.460938, 530167.500000, 374.049988
82120.507812, 530167.437500, 374.059998
82120.562500, 530167.375000, 374.059998
82120.609375, 530167.312500, 374.070007
82120.656250, 530167.250000, 374.070007
82120.710938, 530167.187500, 374.070007
82120.773438, 530167.125000, 374.059998
82120.820312, 530167.062500, 374.070007
82120.882812, 530167.000000, 374.059998
82120.937500, 530166.937500, 374.049988
82121.000000, 530166.875000, 374.049988
82121.046875, 530166.812500, 374.059998
82121.281250, 530166.500000, 374.040009
82121.328125, 530166.437500, 374.040009
82121.390625, 530166.375000, 374.040009
82121.453125, 530166.312500, 374.040009
82121.500000, 530166.250000, 374.040009
82121.562500, 530166.187500, 374.029999
82121.609375, 530166.125000, 374.040009
82121.671875, 530166.000000, 374.040009
82121.718750, 530166.000000, 374.040009
82121.789062, 530165.875000, 374.019989
82121.843750, 530165.812500, 374.029999
82121.890625, 530165.750000, 374.029999
82121.937500, 530165.687500, 374.019989
82122.007812, 530165.625000, 374.019989
82122.062500, 530165.562500, 374.010010
82122.179688, 530165.375000, 374.000000
82107.812500, 530183.187500, 373.700012
82107.882812, 530183.125000, 373.709991
82107.898438, 530183.062500, 373.679993
82107.929688, 530183.062500, 373.640015
82107.960938, 530183.000000, 373.609985
82108.007812, 530182.937500, 373.600006
82108.023438, 530182.937500, 373.540009
82108.070312, 530182.875000, 373.519989
82108.101562, 530182.812500, 373.500000
82108.132812, 530182.812500, 373.459991
82108.156250, 530182.750000, 373.420013
82108.187500, 530182.750000, 373.380005
82108.218750, 530182.687500, 373.339996
82108.257812, 530182.687500, 373.309998
82108.343750, 530182.562500, 373.339996
82108.367188, 530182.500000, 373.299988
82108.429688, 530182.437500, 373.299988
82108.539062, 530182.312500, 373.369995
82108.546875, 530182.312500, 373.299988
82108.601562, 530182.250000, 373.279999
82108.617188, 530182.250000, 373.239990
82108.648438, 530182.187500, 373.190002
82108.710938, 530182.125000, 373.190002
82108.757812, 530182.062500, 373.170013
82108.851562, 530181.937500, 373.209991
82108.921875, 530181.875000, 373.230011
82109.031250, 530181.750000, 373.299988
82109.109375, 530181.625000, 373.329987
82109.179688, 530181.562500, 373.339996
82109.242188, 530181.437500, 373.350006
82109.312500, 530181.375000, 373.350006
82109.367188, 530181.312500, 373.369995
82109.437500, 530181.187500, 373.380005
82109.507812, 530181.125000, 373.399994
82109.578125, 530181.062500, 373.410004
82109.648438, 530180.937500, 373.410004
82109.703125, 530180.875000, 373.410004
82109.773438, 530180.812500, 373.429993
82109.828125, 530180.750000, 373.429993
82109.890625, 530180.687500, 373.429993
82109.953125, 530180.562500, 373.429993
82110.007812, 530180.500000, 373.420013
82110.062500, 530180.437500, 373.410004
82110.109375, 530180.375000, 373.399994
82110.171875, 530180.312500, 373.390015
82110.226562, 530180.250000, 373.390015
82110.281250, 530180.187500, 373.380005
82110.343750, 530180.125000, 373.369995
82110.390625, 530180.062500, 373.369995
82110.453125, 530180.000000, 373.350006
82110.507812, 530179.937500, 373.359985
82110.546875, 530179.875000, 373.320007
82110.609375, 530179.812500, 373.329987
82110.656250, 530179.750000, 373.309998
82110.726562, 530179.625000, 373.320007
82110.781250, 530179.562500, 373.309998
82110.843750, 530179.500000, 373.299988
82110.898438, 530179.437500, 373.299988
82110.968750, 530179.375000, 373.320007
82111.023438, 530179.312500, 373.309998
82111.101562, 530179.187500, 373.350006
82111.171875, 530179.125000, 373.359985
82111.242188, 530179.000000, 373.380005
82111.296875, 530178.937500, 373.390015
82111.359375, 530178.875000, 373.399994
82111.406250, 530178.812500, 373.359985
82111.476562, 530178.750000, 373.380005
82111.531250, 530178.687500, 373.369995
82111.578125, 530178.625000, 373.339996
82111.648438, 530178.500000, 373.369995
82111.710938, 530178.437500, 373.369995
82111.757812, 530178.375000, 373.359985
82111.820312, 530178.312500, 373.369995
82111.882812, 530178.250000, 373.339996
82111.921875, 530178.187500, 373.299988
82112.000000, 530178.062500, 373.350006
82112.062500, 530178.000000, 373.339996
82112.132812, 530177.937500, 373.369995
82112.187500, 530177.875000, 373.380005
82112.250000, 530177.750000, 373.399994
82112.320312, 530177.687500, 373.429993
82112.390625, 530177.625000, 373.440002
82112.437500, 530177.562500, 373.440002
82112.492188, 530177.500000, 373.410004
82112.570312, 530177.375000, 373.459991
82112.609375, 530177.312500, 373.410004
82112.679688, 530177.250000, 373.420013
82112.750000, 530177.187500, 373.450012
82112.796875, 530177.125000, 373.440002
82112.867188, 530177.000000, 373.459991
82112.921875, 530176.937500, 373.450012
82112.992188, 530176.875000, 373.489990
82113.039062, 530176.812500, 373.470001
82113.109375, 530176.750000, 373.500000
82113.179688, 530176.625000, 373.540009
82113.242188, 530176.562500, 373.529999
82113.296875, 530176.500000, 373.549988
82113.359375, 530176.437500, 373.549988
82113.421875, 530176.312500, 373.589996
82113.476562, 530176.250000, 373.609985
82113.539062, 530176.187500, 373.589996
82113.601562, 530176.125000, 373.600006
82113.648438, 530176.062500, 373.589996
82113.718750, 530176.000000, 373.609985
82113.781250, 530175.875000, 373.619995
82113.843750, 530175.812500, 373.619995
82113.890625, 530175.750000, 373.600006
82113.937500, 530175.687500, 373.600006
82114.007812, 530175.625000, 373.609985
82114.062500, 530175.562500, 373.589996
82114.117188, 530175.500000, 373.579987
82114.171875, 530175.437500, 373.570007
82114.242188, 530175.312500, 373.589996
82114.289062, 530175.250000, 373.519989
82114.351562, 530175.187500, 373.579987
82114.406250, 530175.125000, 373.579987
82114.468750, 530175.062500, 373.609985
82114.531250, 530175.000000, 373.609985
82114.578125, 530174.937500, 373.619995
82114.640625, 530174.812500, 373.609985
82114.703125, 530174.750000, 373.600006
82114.757812, 530174.687500, 373.640015
82114.820312, 530174.625000, 373.640015
82114.867188, 530174.562500, 373.619995
82114.929688, 530174.500000, 373.619995
82114.992188, 530174.437500, 373.630005
82115.046875, 530174.312500, 373.670013
82115.109375, 530174.250000, 373.630005
82115.171875, 530174.187500, 373.630005
82115.218750, 530174.125000, 373.660004
82115.281250, 530174.062500, 373.660004
82115.343750, 530174.000000, 373.670013
82115.390625, 530173.937500, 373.679993
82115.453125, 530173.875000, 373.679993
82115.507812, 530173.750000, 373.679993
82115.570312, 530173.687500, 373.679993
82115.632812, 530173.625000, 373.670013
82115.679688, 530173.562500, 373.649994
82115.742188, 530173.500000, 373.649994
82115.796875, 530173.437500, 373.619995
82115.859375, 530173.375000, 373.649994
82115.906250, 530173.312500, 373.660004
82115.968750, 530173.250000, 373.670013
82116.031250, 530173.125000, 373.660004
82116.093750, 530173.062500, 373.640015
82116.148438, 530173.000000, 373.630005
82116.203125, 530172.937500, 373.630005
82116.257812, 530172.875000, 373.660004
82116.320312, 530172.812500, 373.649994
82116.367188, 530172.750000, 373.660004
82116.492188, 530172.562500, 373.670013
82116.539062, 530172.500000, 373.679993
82116.601562, 530172.437500, 373.660004
82116.656250, 530172.375000, 373.690002
82116.718750, 530172.312500, 373.690002
82116.773438, 530172.250000, 373.690002
82116.820312, 530172.187500, 373.720001
82116.890625, 530172.062500, 373.700012
82116.937500, 530172.000000, 373.700012
82116.992188, 530171.937500, 373.720001
82117.046875, 530171.875000, 373.700012
82117.109375, 530171.812500, 373.679993
82117.156250, 530171.750000, 373.720001
82117.210938, 530171.687500, 373.739990
82117.257812, 530171.625000, 373.769989
82117.328125, 530171.562500, 373.750000
82117.382812, 530171.500000, 373.760010
82117.437500, 530171.437500, 373.750000
82117.500000, 530171.312500, 373.739990
82117.562500, 530171.250000, 373.739990
82117.609375, 530171.187500, 373.769989
82117.656250, 530171.125000, 373.779999
82117.718750, 530171.062500, 373.769989
82117.781250, 530171.000000, 373.750000
82117.828125, 530170.937500, 373.779999
82117.890625, 530170.875000, 373.769989
82117.953125, 530170.812500, 373.760010
82118.000000, 530170.750000, 373.790009
82118.039062, 530170.687500, 373.829987
82118.101562, 530170.625000, 373.799988
82118.156250, 530170.500000, 373.809998
82118.218750, 530170.437500, 373.799988
82118.273438, 530170.375000, 373.809998
82118.320312, 530170.312500, 373.829987
82118.390625, 530170.250000, 373.790009
82118.453125, 530170.187500, 373.799988
82118.492188, 530170.125000, 373.820007
82118.539062, 530170.062500, 373.829987
82118.593750, 530170.000000, 373.859985
82118.671875, 530169.937500, 373.799988
82118.726562, 530169.812500, 373.790009
82118.796875, 530169.750000, 373.769989
82118.851562, 530169.687500, 373.790009
82118.898438, 530169.625000, 373.809998
82118.960938, 530169.562500, 373.790009
82119.031250, 530169.500000, 373.760010
82119.093750, 530169.375000, 373.760010
82119.140625, 530169.312500, 373.750000
82119.187500, 530169.250000, 373.779999
82119.250000, 530169.187500, 373.769989
82119.296875, 530169.125000, 373.779999
82119.351562, 530169.062500, 373.809998
82119.390625, 530169.000000, 373.839996
82119.429688, 530169.000000, 373.859985
82119.500000, 530168.875000, 373.829987
82119.531250, 530168.812500, 373.869995
82119.578125, 530168.750000, 373.880005
82119.640625, 530168.687500, 373.890015
82119.687500, 530168.625000, 373.899994
82119.726562, 530168.625000, 373.910004
82119.789062, 530168.500000, 373.920013
82119.843750, 530168.500000, 373.929993
82119.890625, 530168.375000, 373.929993
82119.960938, 530168.312500, 373.920013
82120.007812, 530168.250000, 373.920013
82120.046875, 530168.187500, 373.950012
82120.093750, 530168.125000, 373.959991
82120.140625, 530168.062500, 373.970001
82120.179688, 530168.062500, 374.000000
82120.250000, 530167.937500, 373.970001
82120.312500, 530167.875000, 373.970001
82120.359375, 530167.812500, 373.980011
82120.406250, 530167.750000, 373.989990
82120.453125, 530167.687500, 374.000000
82120.500000, 530167.687500, 374.029999
82120.539062, 530167.625000, 374.029999
82120.601562, 530167.500000, 374.029999
82120.656250, 530167.437500, 374.040009
82120.703125, 530167.437500, 374.040009
82120.757812, 530167.312500, 374.049988
82120.796875, 530167.250000, 374.059998
82120.859375, 530167.187500, 374.059998
82120.906250, 530167.125000, 374.059998
82120.960938, 530167.062500, 374.070007
82121.023438, 530167.000000, 374.059998
82121.070312, 530166.937500, 374.070007
82121.140625, 530166.875000, 374.040009
82121.210938, 530166.812500, 374.029999
82121.382812, 530166.562500, 374.010010
82121.429688, 530166.500000, 374.019989
82121.492188, 530166.437500, 374.019989
82121.539062, 530166.375000, 374.019989
82121.601562, 530166.312500, 374.019989
82121.640625, 530166.250000, 374.029999
82121.710938, 530166.187500, 374.019989
82121.757812, 530166.125000, 374.019989
82121.812500, 530166.062500, 374.019989
82121.867188, 530166.000000, 374.019989
82121.929688, 530165.937500, 374.010010
82121.992188, 530165.812500, 374.010010
82122.039062, 530165.750000, 374.010010
82122.109375, 530165.687500, 374.010010
82122.156250, 530165.625000, 374.000000
82122.210938, 530165.562500, 374.000000
82107.859375, 530183.187500, 373.730011
82107.898438, 530183.125000, 373.720001
82107.937500, 530183.062500, 373.700012
82107.960938, 530183.062500, 373.649994
82107.992188, 530183.062500, 373.609985
82108.023438, 530183.000000, 373.579987
82108.078125, 530182.937500, 373.589996
82108.109375, 530182.937500, 373.549988
82108.140625, 530182.875000, 373.510010
82108.156250, 530182.875000, 373.459991
82108.187500, 530182.812500, 373.429993
82108.210938, 530182.812500, 373.369995
82108.226562, 530182.750000, 373.329987
82108.328125, 530182.625000, 373.390015
82108.398438, 530182.562500, 373.399994
82108.437500, 530182.500000, 373.359985
82108.476562, 530182.437500, 373.339996
82108.507812, 530182.437500, 373.299988
82108.539062, 530182.375000, 373.260010
82108.593750, 530182.312500, 373.239990
82108.640625, 530182.250000, 373.239990
82108.687500, 530182.250000, 373.209991
82108.742188, 530182.187500, 373.200012
82108.820312, 530182.062500, 373.220001
82108.921875, 530181.937500, 373.269989
82108.937500, 530181.937500, 373.209991
82109.132812, 530181.687500, 373.320007
82109.187500, 530181.625000, 373.329987
82109.273438, 530181.500000, 373.350006
82109.343750, 530181.437500, 373.359985
82109.398438, 530181.312500, 373.369995
82109.468750, 530181.250000, 373.380005
82109.539062, 530181.187500, 373.399994
82109.601562, 530181.062500, 373.399994
82109.671875, 530181.000000, 373.410004
82109.742188, 530180.937500, 373.420013
82109.796875, 530180.875000, 373.420013
82109.859375, 530180.750000, 373.429993
82109.921875, 530180.687500, 373.429993
82109.976562, 530180.625000, 373.420013
82110.031250, 530180.562500, 373.410004
82110.093750, 530180.500000, 373.410004
82110.148438, 530180.437500, 373.410004
82110.203125, 530180.375000, 373.399994
82110.257812, 530180.312500, 373.390015
82110.312500, 530180.250000, 373.380005
82110.367188, 530180.187500, 373.380005
82110.429688, 530180.125000, 373.369995
82110.476562, 530180.000000, 373.369995
82110.539062, 530179.937500, 373.359985
82110.593750, 530179.875000, 373.350006
82110.648438, 530179.812500, 373.339996
82110.710938, 530179.750000, 373.329987
82110.757812, 530179.687500, 373.320007
82110.820312, 530179.625000, 373.309998
82110.882812, 530179.562500, 373.309998
82110.937500, 530179.500000, 373.320007
82111.007812, 530179.375000, 373.329987
82111.070312, 530179.312500, 373.350006
82111.148438, 530179.250000, 373.380005
82111.210938, 530179.125000, 373.380005
82111.281250, 530179.062500, 373.390015
82111.320312, 530179.000000, 373.369995
82111.390625, 530178.937500, 373.369995
82111.437500, 530178.875000, 373.369995
82111.492188, 530178.812500, 373.339996
82111.531250, 530178.750000, 373.290009
82111.632812, 530178.625000, 373.380005
82111.679688, 530178.562500, 373.359985
82111.726562, 530178.500000, 373.329987
82111.789062, 530178.437500, 373.339996
82111.859375, 530178.375000, 373.359985
82111.906250, 530178.312500, 373.329987
82111.960938, 530178.250000, 373.329987
82112.031250, 530178.125000, 373.350006
82112.101562, 530178.062500, 373.350006
82112.148438, 530178.000000, 373.339996
82112.218750, 530177.937500, 373.359985
82112.289062, 530177.812500, 373.390015
82112.359375, 530177.750000, 373.420013
82112.429688, 530177.687500, 373.440002
82112.476562, 530177.562500, 373.440002
82112.546875, 530177.500000, 373.450012
82112.601562, 530177.437500, 373.429993
82112.671875, 530177.375000, 373.450012
82112.718750, 530177.312500, 373.450012
82112.789062, 530177.250000, 373.450012
82112.843750, 530177.125000, 373.459991
82112.906250, 530177.062500, 373.480011
82112.968750, 530177.000000, 373.489990
82113.031250, 530176.937500, 373.510010
82113.093750, 530176.875000, 373.500000
82113.156250, 530176.750000, 373.540009
82113.218750, 530176.687500, 373.529999
82113.273438, 530176.625000, 373.519989
82113.351562, 530176.500000, 373.579987
82113.398438, 530176.500000, 373.559998
82113.460938, 530176.375000, 373.559998
82113.531250, 530176.312500, 373.609985
82113.593750, 530176.250000, 373.619995
82113.648438, 530176.187500, 373.609985
82113.703125, 530176.125000, 373.609985
82113.757812, 530176.000000, 373.609985
82113.820312, 530175.937500, 373.600006
82113.867188, 530175.875000, 373.579987
82113.929688, 530175.812500, 373.600006
82113.992188, 530175.750000, 373.540009
82114.046875, 530175.687500, 373.619995
82114.109375, 530175.625000, 373.609985
82114.156250, 530175.562500, 373.579987
82114.226562, 530175.500000, 373.600006
82114.281250, 530175.437500, 373.570007
82114.328125, 530175.312500, 373.549988
82114.398438, 530175.250000, 373.609985
82114.453125, 530175.187500, 373.579987
82114.507812, 530175.125000, 373.579987
82114.578125, 530175.062500, 373.579987
82114.632812, 530175.000000, 373.570007
82114.687500, 530174.875000, 373.589996
82114.750000, 530174.812500, 373.559998
82114.812500, 530174.750000, 373.589996
82114.867188, 530174.687500, 373.589996
82114.929688, 530174.625000, 373.559998
82114.976562, 530174.562500, 373.600006
82115.039062, 530174.500000, 373.609985
82115.101562, 530174.375000, 373.619995
82115.156250, 530174.312500, 373.619995
82115.218750, 530174.250000, 373.630005
82115.273438, 530174.187500, 373.660004
82115.328125, 530174.125000, 373.660004
82115.390625, 530174.062500, 373.630005
82115.437500, 530174.000000, 373.640015
82115.500000, 530173.937500, 373.670013
82115.562500, 530173.812500, 373.649994
82115.617188, 530173.750000, 373.660004
82115.679688, 530173.687500, 373.649994
82115.742188, 530173.625000, 373.649994
82115.789062, 530173.562500, 373.649994
82115.851562, 530173.500000, 373.640015
82115.906250, 530173.437500, 373.649994
82115.968750, 530173.375000, 373.640015
82116.023438, 530173.250000, 373.640015
82116.078125, 530173.187500, 373.660004
82116.140625, 530173.125000, 373.640015
82116.203125, 530173.062500, 373.640015
82116.257812, 530173.000000, 373.630005
82116.312500, 530172.937500, 373.640015
82116.367188, 530172.875000, 373.649994
82116.429688, 530172.812500, 373.660004
82116.492188, 530172.750000, 373.649994
82116.539062, 530172.625000, 373.670013
82116.601562, 530172.562500, 373.660004
82116.656250, 530172.500000, 373.660004
82116.710938, 530172.437500, 373.660004
82116.781250, 530172.375000, 373.640015
82116.828125, 530172.312500, 373.679993
82116.882812, 530172.250000, 373.700012
82116.937500, 530172.187500, 373.690002
82116.992188, 530172.125000, 373.700012
82117.046875, 530172.000000, 373.730011
82117.117188, 530171.937500, 373.670013
82117.171875, 530171.875000, 373.700012
82117.218750, 530171.812500, 373.730011
82117.273438, 530171.750000, 373.760010
82117.328125, 530171.687500, 373.739990
82117.390625, 530171.625000, 373.709991
82117.437500, 530171.562500, 373.760010
82117.500000, 530171.500000, 373.750000
82117.562500, 530171.437500, 373.739990
82117.609375, 530171.375000, 373.760010
82117.656250, 530171.250000, 373.769989
82117.718750, 530171.187500, 373.769989
82117.781250, 530171.125000, 373.769989
82117.828125, 530171.062500, 373.790009
82117.890625, 530171.000000, 373.790009
82117.937500, 530170.937500, 373.790009
82117.992188, 530170.875000, 373.799988
82118.062500, 530170.812500, 373.790009
82118.101562, 530170.750000, 373.820007
82118.171875, 530170.687500, 373.799988
82118.218750, 530170.625000, 373.809998
82118.273438, 530170.500000, 373.809998
82118.328125, 530170.437500, 373.820007
82118.382812, 530170.375000, 373.829987
82118.429688, 530170.312500, 373.850006
82118.500000, 530170.250000, 373.829987
82118.546875, 530170.187500, 373.829987
82118.593750, 530170.125000, 373.869995
82118.648438, 530170.062500, 373.850006
82118.718750, 530170.000000, 373.839996
82118.789062, 530169.937500, 373.809998
82118.851562, 530169.812500, 373.790009
82118.921875, 530169.750000, 373.769989
82118.960938, 530169.687500, 373.799988
82119.000000, 530169.625000, 373.829987
82119.078125, 530169.562500, 373.779999
82119.132812, 530169.500000, 373.799988
82119.203125, 530169.437500, 373.760010
82119.257812, 530169.312500, 373.760010
82119.312500, 530169.250000, 373.779999
82119.367188, 530169.187500, 373.779999
82119.421875, 530169.125000, 373.790009
82119.460938, 530169.062500, 373.809998
82119.507812, 530169.000000, 373.829987
82119.546875, 530169.000000, 373.859985
82119.601562, 530168.937500, 373.869995
82119.648438, 530168.875000, 373.880005
82119.710938, 530168.812500, 373.890015
82119.757812, 530168.750000, 373.890015
82119.820312, 530168.625000, 373.880005
82119.867188, 530168.562500, 373.890015
82119.921875, 530168.500000, 373.890015
82119.968750, 530168.437500, 373.899994
82120.023438, 530168.375000, 373.910004
82120.078125, 530168.312500, 373.910004
82120.132812, 530168.250000, 373.920013
82120.179688, 530168.187500, 373.929993
82120.226562, 530168.125000, 373.940002
82120.281250, 530168.062500, 373.950012
82120.312500, 530168.062500, 373.980011
82120.382812, 530167.937500, 373.959991
82120.429688, 530167.875000, 373.980011
82120.492188, 530167.812500, 373.980011
82120.531250, 530167.750000, 373.989990
82120.593750, 530167.687500, 373.989990
82120.640625, 530167.625000, 373.989990
82120.687500, 530167.562500, 374.010010
82120.750000, 530167.500000, 374.000000
82120.796875, 530167.437500, 374.000000
82120.851562, 530167.375000, 374.019989
82120.898438, 530167.312500, 374.019989
82120.953125, 530167.250000, 374.019989
82121.000000, 530167.187500, 374.029999
82121.046875, 530167.125000, 374.029999
82121.109375, 530167.062500, 374.019989
